# .PCD v0.7 - Point Cloud Data file format
VERSION 0.7
FIELDS x y z
SIZE 4 4 4
TYPE F F F
COUNT 1 1 1
WIDTH 1523
HEIGHT 1
VIEWPOINT 0 0 0 1 0 0 0
POINTS 1523
DATA ascii
0.76092005 0.78948003 2.1420002
0.76500005 0.78948003 2.1420002
0.76908004 0.78948003 2.1420002
0.77316004 0.78948003 2.1420002
0.77724004 0.78948003 2.1420002
0.78132004 0.78948003 2.1420002
0.78540003 0.78948003 2.1420002
0.78948003 0.78948003 2.1420002
0.79356003 0.78948003 2.1420002
0.79764003 0.78948003 2.1420002
0.80172002 0.78948003 2.1420002
0.80580008 0.78948003 2.1420002
0.80988008 0.78948003 2.1420002
0.81396008 0.78948003 2.1420002
0.81804007 0.78948003 2.1420002
0.82212007 0.78948003 2.1420002
0.82620007 0.78948003 2.1420002
0.83028007 0.78948003 2.1420002
0.83436006 0.78948003 2.1420002
0.83844006 0.78948003 2.1420002
0.84252006 0.78948003 2.1420002
0.84660006 0.78948003 2.1420002
0.85068005 0.78948003 2.1420002
0.85476005 0.78948003 2.1420002
0.86004293 0.79058576 2.1450002
0.8665458 0.79279721 2.151
0.87347627 0.79537719 2.158
0.88043338 0.79795718 2.1650002
-1.1031249 0.79318959 2.141
-1.0944268 0.7898553 2.1320002
-1.0903658 0.7898553 2.1320002
-1.0863048 0.7898553 2.1320002
-1.0822439 0.7898553 2.1320002
-1.0781829 0.7898553 2.1320002
-1.074122 0.7898553 2.1320002
-1.070061 0.7898553 2.1320002
-1.0660001 0.7898553 2.1320002
-1.0619391 0.7898553 2.1320002
-1.0578781 0.7898553 2.1320002
-1.0538172 0.7898553 2.1320002
-1.0497563 0.7898553 2.1320002
-1.0456953 0.7898553 2.1320002
-1.0416343 0.7898553 2.1320002
-1.0375735 0.7898553 2.1320002
-1.0335125 0.7898553 2.1320002
-1.0294515 0.7898553 2.1320002
-1.0253905 0.7898553 2.1320002
-1.0213296 0.7898553 2.1320002
-1.0172687 0.7898553 2.1320002
-1.0132077 0.7898553 2.1320002
-1.0091467 0.7898553 2.1320002
-1.0050858 0.7898553 2.1320002
-1.0010248 0.7898553 2.1320002
-0.99696386 0.7898553 2.1320002
-0.99290293 0.7898553 2.1320002
-0.98884195 0.7898553 2.1320002
-0.98478103 0.7898553 2.1320002
-0.98072004 0.7898553 2.1320002
-0.97665912 0.7898553 2.1320002
-0.97259814 0.7898553 2.1320002
-0.96853721 0.7898553 2.1320002
-0.96447623 0.7898553 2.1320002
-0.9604153 0.7898553 2.1320002
-0.95635432 0.7898553 2.1320002
-0.9522934 0.7898553 2.1320002
-0.94823247 0.7898553 2.1320002
-0.94417149 0.7898553 2.1320002
-0.94011056 0.7898553 2.1320002
-0.93604958 0.7898553 2.1320002
-0.93198866 0.7898553 2.1320002
-0.92792767 0.7898553 2.1320002
-0.92386675 0.7898553 2.1320002
-0.91980577 0.7898553 2.1320002
-0.91574484 0.7898553 2.1320002
-0.91168386 0.7898553 2.1320002
-0.90762293 0.7898553 2.1320002
-0.90356195 0.7898553 2.1320002
-0.89950103 0.7898553 2.1320002
-0.89544004 0.7898553 2.1320002
-0.89137912 0.7898553 2.1320002
-0.88731813 0.7898553 2.1320002
-0.88325721 0.7898553 2.1320002
-0.87919623 0.7898553 2.1320002
-0.8751353 0.7898553 2.1320002
-0.87107432 0.7898553 2.1320002
-0.86701339 0.7898553 2.1320002
-0.86295241 0.7898553 2.1320002
-0.85889149 0.7898553 2.1320002
-0.8548305 0.7898553 2.1320002
-0.85076958 0.7898553 2.1320002
-0.84670866 0.7898553 2.1320002
-0.84264767 0.7898553 2.1320002
-0.83858675 0.7898553 2.1320002
-0.83452576 0.7898553 2.1320002
-0.83046484 0.7898553 2.1320002
-0.82640386 0.7898553 2.1320002
-0.82234293 0.7898553 2.1320002
-0.81828195 0.7898553 2.1320002
-0.81422102 0.7898553 2.1320002
-0.81016004 0.7898553 2.1320002
-0.80609912 0.7898553 2.1320002
-0.80203813 0.7898553 2.1320002
-0.79797721 0.7898553 2.1320002
-0.79391623 0.7898553 2.1320002
-0.7898553 0.7898553 2.1320002
-0.78579432 0.7898553 2.1320002
-0.78173339 0.7898553 2.1320002
-0.77767241 0.7898553 2.1320002
-0.77361149 0.7898553 2.1320002
-0.7695505 0.7898553 2.1320002
-0.76548958 0.7898553 2.1320002
-0.76142859 0.7898553 2.1320002
-0.75736767 0.7898553 2.1320002
-0.75330669 0.7898553 2.1320002
-0.74924576 0.7898553 2.1320002
-0.74518484 0.7898553 2.1320002
-0.74112386 0.7898553 2.1320002
-0.73706293 0.7898553 2.1320002
-0.73300195 0.7898553 2.1320002
-0.72894102 0.7898553 2.1320002
-0.72488004 0.7898553 2.1320002
-0.72081912 0.7898553 2.1320002
-0.71675813 0.7898553 2.1320002
-0.71269721 0.7898553 2.1320002
-0.70863622 0.7898553 2.1320002
-0.7045753 0.7898553 2.1320002
-0.70051432 0.7898553 2.1320002
-0.69645339 0.7898553 2.1320002
-0.69239241 0.7898553 2.1320002
-0.68833148 0.7898553 2.1320002
-0.6842705 0.7898553 2.1320002
-0.68020958 0.7898553 2.1320002
-0.67614859 0.7898553 2.1320002
-0.67208767 0.7898553 2.1320002
-0.66802669 0.7898553 2.1320002
-0.66396576 0.7898553 2.1320002
-0.65990478 0.7898553 2.1320002
-0.65584385 0.7898553 2.1320002
-0.65178287 0.7898553 2.1320002
-0.64772195 0.7898553 2.1320002
-0.64366102 0.7898553 2.1320002
-0.63960004 0.7898553 2.1320002
-0.63553911 0.7898553 2.1320002
-0.63147813 0.7898553 2.1320002
-0.62741721 0.7898553 2.1320002
-0.62335622 0.7898553 2.1320002
-0.6192953 0.7898553 2.1320002
-0.61523432 0.7898553 2.1320002
-0.61117339 0.7898553 2.1320002
-0.60711241 0.7898553 2.1320002
-0.60305148 0.7898553 2.1320002
-0.5989905 0.7898553 2.1320002
-0.59492958 0.7898553 2.1320002
-0.59086859 0.7898553 2.1320002
-0.58680767 0.7898553 2.1320002
-0.58274668 0.7898553 2.1320002
-0.57868576 0.7898553 2.1320002
-0.57462478 0.7898553 2.1320002
-0.57056385 0.7898553 2.1320002
-0.56650287 0.7898553 2.1320002
-0.56244195 0.7898553 2.1320002
-0.55838096 0.7898553 2.1320002
-0.55432004 0.7898553 2.1320002
-0.55025911 0.7898553 2.1320002
-0.54619813 0.7898553 2.1320002
-0.54213721 0.7898553 2.1320002
-0.53807622 0.7898553 2.1320002
-0.5340153 0.7898553 2.1320002
-0.52995431 0.7898553 2.1320002
-0.52589339 0.7898553 2.1320002
-0.52183241 0.7898553 2.1320002
-0.51777148 0.7898553 2.1320002
-0.5137105 0.7898553 2.1320002
-0.50964957 0.7898553 2.1320002
-0.50558859 0.7898553 2.1320002
-0.50152767 0.7898553 2.1320002
-0.49746671 0.7898553 2.1320002
-0.49340576 0.7898553 2.1320002
-0.48934481 0.7898553 2.1320002
-0.48528385 0.7898553 2.1320002
-0.4812229 0.7898553 2.1320002
-0.47716194 0.7898553 2.1320002
-0.47310099 0.7898553 2.1320002
-0.46904004 0.7898553 2.1320002
-0.46497908 0.7898553 2.1320002
-0.46091813 0.7898553 2.1320002
-0.45685717 0.7898553 2.1320002
-0.45279622 0.7898553 2.1320002
-0.44873527 0.7898553 2.1320002
-0.44467431 0.7898553 2.1320002
-0.44061336 0.7898553 2.1320002
-0.41116193 0.74391621 2.0080001
-0.40713432 0.74354577 2.0070002
-0.4031105 0.74317527 2.006
-0.39928955 0.74317527 2.006
-0.39448288 0.74132293 2.0010002
-0.39008573 0.74021149 1.9980001
-0.38628003 0.74021149 1.9980001
-0.3824743 0.74021149 1.9980001
-0.37866861 0.74021149 1.9980001
-0.37204859 0.73465431 1.983
-0.36808574 0.73428386 1.9820001
-0.3643105 0.73428386 1.9820001
-0.36035335 0.73391336 1.9810001
-0.35658002 0.73391336 1.9810001
-0.35280669 0.73391336 1.9810001
-0.34885716 0.73354292 1.9800001
-0.34508574 0.73354292 1.9800001
-0.34114194 0.73317242 1.9790001
-0.33737239 0.73317242 1.9790001
-0.33343431 0.73280197 1.978
-0.33033335 0.73428386 1.9820001
-0.32655811 0.73428386 1.9820001
-0.32262003 0.73391336 1.9810001
-0.31900764 0.73428386 1.9820001
-0.31555051 0.73502481 1.9840001
-0.31145716 0.73428386 1.9820001
-0.30752668 0.73391336 1.9810001
-0.30360001 0.73354292 1.9800001
-0.29982859 0.73354292 1.9800001
-0.29605716 0.73354292 1.9800001
-0.29243335 0.73391336 1.9810001
-0.28895146 0.73465431 1.983
-0.28474286 0.73354292 1.9800001
-0.28097144 0.73354292 1.9800001
-0.27706003 0.73317242 1.9790001
-0.27329049 0.73317242 1.9790001
-0.26938477 0.73280197 1.978
-0.26561716 0.73280197 1.978
-0.26184955 0.73280197 1.978
-0.25808191 0.73280197 1.978
-0.2543143 0.73280197 1.978
-0.25054669 0.73280197 1.978
-0.24677907 0.73280197 1.978
-0.24301144 0.73280197 1.978
-0.23924382 0.73280197 1.978
-0.23547621 0.73280197 1.978
-0.23170859 0.73280197 1.978
-0.22794096 0.73280197 1.978
-0.22417335 0.73280197 1.978
-0.22040573 0.73280197 1.978
-0.21674763 0.73317242 1.9790001
-0.21297811 0.73317242 1.9790001
-0.20920858 0.73317242 1.9790001
-0.20543906 0.73317242 1.9790001
-0.20166954 0.73317242 1.9790001
-0.19790001 0.73317242 1.9790001
-0.1941305 0.73317242 1.9790001
-0.19026478 0.73280197 1.978
-0.18649715 0.73280197 1.978
-0.18263716 0.73243147 1.9770001
-0.17887144 0.73243147 1.9770001
-0.17510572 0.73243147 1.9770001
-0.17125334 0.73206103 1.9760001
-0.16748953 0.73206103 1.9760001
-0.16372572 0.73206103 1.9760001
-0.15996191 0.73206103 1.9760001
-0.15643525 0.73317242 1.9790001
-0.15228 0.73132002 1.9740001
-0.14852001 0.73132002 1.9740001
-0.14476001 0.73132002 1.9740001
-0.14092858 0.73094958 1.973
-0.13717048 0.73094958 1.973
-0.13341239 0.73094958 1.973
-0.12985143 0.73206103 1.9760001
-0.12583239 0.73057908 1.9720001
-0.12269524 0.73428386 1.9820001
-0.11844001 0.73132002 1.9740001
-0.11468001 0.73132002 1.9740001
-0.11092 0.73132002 1.9740001
-0.10710572 0.73094958 1.973
-0.10340001 0.73132002 1.9740001
-0.10019524 0.73539531 1.9850001
-0.09597715 0.73206103 1.9760001
-0.09221334 0.73206103 1.9760001
-0.08844953 0.73206103 1.9760001
-0.084642865 0.73169053 1.9750001
-0.080880955 0.73169053 1.9750001
-0.077119052 0.73169053 1.9750001
-0.07335715 0.73169053 1.9750001
-0.069560006 0.73132002 1.9740001
-0.065800004 0.73132002 1.9740001
-0.062040005 0.73132002 1.9740001
-0.058280002 0.73132002 1.9740001
-0.054492384 0.73094958 1.973
-0.050760005 0.73132002 1.9740001
-0.047023814 0.73169053 1.9750001
-0.043371432 0.73354292 1.9800001
-0.039680004 0.73502481 1.9840001
-0.03588286 0.73465431 1.983
-0.032105718 0.73465431 1.983
-0.028200002 0.73132002 1.9740001
-0.024427621 0.73094958 1.973
-0.020669525 0.73094958 1.973
-0.01691143 0.73094958 1.973
0.013206667 0.73391336 1.9810001
0.016997144 0.73465431 1.983
0.020669525 0.73094958 1.973
0.02441524 0.73057908 1.9720001
0.028171431 0.73057908 1.9720001
0.031943813 0.73094958 1.973
0.035701908 0.73094958 1.973
0.039360002 0.72909719 1.9680001
0.043174289 0.73020864 1.9710001
0.046952385 0.73057908 1.9720001
0.050682861 0.73020864 1.9710001
0.054437146 0.73020864 1.9710001
0.058161907 0.72983813 1.9700001
0.062008575 0.73094958 1.973
0.065666668 0.72983813 1.9700001
0.069383815 0.72946769 1.9690001
0.073134288 0.72946769 1.9690001
0.07684572 0.72909719 1.9680001
0.080594294 0.72909719 1.9680001
0.08434286 0.72909719 1.9680001
0.088180959 0.72983813 1.9700001
0.091886669 0.72946769 1.9690001
0.13083716 0.73761815 1.9910001
0.13476478 0.73835909 1.9930001
0.13870001 0.73910004 1.9950001
0.15634668 0.7898553 2.1320002
0.16040763 0.7898553 2.1320002
0.16446859 0.7898553 2.1320002
0.16852954 0.7898553 2.1320002
0.17259049 0.7898553 2.1320002
0.17665143 0.7898553 2.1320002
0.18071239 0.7898553 2.1320002
0.18477334 0.7898553 2.1320002
0.18883429 0.7898553 2.1320002
0.19289525 0.7898553 2.1320002
0.1969562 0.7898553 2.1320002
0.20101716 0.7898553 2.1320002
0.20507811 0.7898553 2.1320002
0.20913906 0.7898553 2.1320002
0.21320002 0.7898553 2.1320002
0.21726097 0.7898553 2.1320002
0.22132193 0.7898553 2.1320002
0.22538288 0.7898553 2.1320002
0.22944382 0.7898553 2.1320002
0.23350477 0.7898553 2.1320002
0.23756573 0.7898553 2.1320002
0.24162668 0.7898553 2.1320002
0.24568763 0.7898553 2.1320002
0.24974859 0.7898553 2.1320002
0.25380954 0.7898553 2.1320002
0.2578705 0.7898553 2.1320002
0.26193145 0.7898553 2.1320002
0.2659924 0.7898553 2.1320002
0.27005336 0.7898553 2.1320002
0.27411431 0.7898553 2.1320002
0.27817526 0.7898553 2.1320002
0.28223622 0.7898553 2.1320002
0.28629717 0.7898553 2.1320002
0.29035813 0.7898553 2.1320002
0.29441908 0.7898553 2.1320002
0.29848003 0.7898553 2.1320002
0.30254096 0.7898553 2.1320002
0.30660191 0.7898553 2.1320002
0.31066287 0.7898553 2.1320002
0.31472382 0.7898553 2.1320002
0.31878477 0.7898553 2.1320002
0.32284573 0.7898553 2.1320002
0.33908954 0.7898553 2.1320002
0.50558859 0.7898553 2.1320002
0.50964957 0.7898553 2.1320002
0.5137105 0.7898553 2.1320002
0.51777148 0.7898553 2.1320002
0.52183241 0.7898553 2.1320002
0.52589339 0.7898553 2.1320002
0.52995431 0.7898553 2.1320002
0.5340153 0.7898553 2.1320002
0.53807622 0.7898553 2.1320002
0.54213721 0.7898553 2.1320002
0.54619813 0.7898553 2.1320002
0.55025911 0.7898553 2.1320002
0.55432004 0.7898553 2.1320002
0.55838096 0.7898553 2.1320002
0.56244195 0.7898553 2.1320002
0.56650287 0.7898553 2.1320002
0.57056385 0.7898553 2.1320002
0.57462478 0.7898553 2.1320002
0.57868576 0.7898553 2.1320002
0.58274668 0.7898553 2.1320002
0.58680767 0.7898553 2.1320002
0.59086859 0.7898553 2.1320002
0.59492958 0.7898553 2.1320002
0.5989905 0.7898553 2.1320002
0.60305148 0.7898553 2.1320002
0.60711241 0.7898553 2.1320002
0.61117339 0.7898553 2.1320002
0.61523432 0.7898553 2.1320002
0.6192953 0.7898553 2.1320002
0.62335622 0.7898553 2.1320002
0.62741721 0.7898553 2.1320002
0.63147813 0.7898553 2.1320002
0.63553911 0.7898553 2.1320002
0.63960004 0.7898553 2.1320002
0.64366102 0.7898553 2.1320002
0.64772195 0.7898553 2.1320002
0.65178287 0.7898553 2.1320002
0.65584385 0.7898553 2.1320002
0.65990478 0.7898553 2.1320002
0.66396576 0.7898553 2.1320002
0.66802669 0.7898553 2.1320002
0.67208767 0.7898553 2.1320002
0.67614859 0.7898553 2.1320002
0.68020958 0.7898553 2.1320002
0.6842705 0.7898553 2.1320002
0.68833148 0.7898553 2.1320002
0.69239241 0.7898553 2.1320002
0.69645339 0.7898553 2.1320002
0.70051432 0.7898553 2.1320002
0.7045753 0.7898553 2.1320002
0.70863622 0.7898553 2.1320002
0.71269721 0.7898553 2.1320002
0.71675813 0.7898553 2.1320002
0.72081912 0.7898553 2.1320002
0.72488004 0.7898553 2.1320002
0.72894102 0.7898553 2.1320002
0.73300195 0.7898553 2.1320002
0.73706293 0.7898553 2.1320002
0.74112386 0.7898553 2.1320002
0.74518484 0.7898553 2.1320002
0.74924576 0.7898553 2.1320002
0.75330669 0.7898553 2.1320002
0.75736767 0.7898553 2.1320002
0.76142859 0.7898553 2.1320002
0.76548958 0.7898553 2.1320002
0.7695505 0.7898553 2.1320002
0.77361149 0.7898553 2.1320002
0.77767241 0.7898553 2.1320002
0.78173339 0.7898553 2.1320002
0.78579432 0.7898553 2.1320002
0.7898553 0.7898553 2.1320002
0.79391623 0.7898553 2.1320002
0.79797721 0.7898553 2.1320002
0.80203813 0.7898553 2.1320002
0.80609912 0.7898553 2.1320002
0.81016004 0.7898553 2.1320002
0.81422102 0.7898553 2.1320002
0.81828195 0.7898553 2.1320002
0.82234293 0.7898553 2.1320002
0.82640386 0.7898553 2.1320002
0.83046484 0.7898553 2.1320002
0.83452576 0.7898553 2.1320002
0.83858675 0.7898553 2.1320002
0.84264767 0.7898553 2.1320002
0.84670866 0.7898553 2.1320002
0.85076958 0.7898553 2.1320002
0.8548305 0.7898553 2.1320002
0.86010003 0.79096669 2.135
0.86700004 0.79356003 2.1420002
0.87352008 0.79578292 2.148
0.88047147 0.79837626 2.1550002
-1.1092049 0.79577816 2.1370001
-1.0978943 0.79056484 2.1230001
-1.0933353 0.79019243 2.1220002
-1.0892934 0.79019243 2.1220002
-1.0852515 0.79019243 2.1220002
-1.0812095 0.79019243 2.1220002
-1.0771677 0.79019243 2.1220002
-1.0731258 0.79019243 2.1220002
-1.0690839 0.79019243 2.1220002
-1.065042 0.79019243 2.1220002
-1.0610001 0.79019243 2.1220002
-1.0569582 0.79019243 2.1220002
-1.0529163 0.79019243 2.1220002
-1.0488744 0.79019243 2.1220002
-1.0448325 0.79019243 2.1220002
-1.0407906 0.79019243 2.1220002
-1.0367486 0.79019243 2.1220002
-1.0327067 0.79019243 2.1220002
-1.0286648 0.79019243 2.1220002
-1.0246229 0.79019243 2.1220002
-1.020581 0.79019243 2.1220002
-1.0165391 0.79019243 2.1220002
-1.0124972 0.79019243 2.1220002
-1.0084553 0.79019243 2.1220002
-1.0044134 0.79019243 2.1220002
-1.0003715 0.79019243 2.1220002
-0.99632961 0.79019243 2.1220002
-0.9922877 0.79019243 2.1220002
-0.98824579 0.79019243 2.1220002
-0.98420388 0.79019243 2.1220002
-0.98016196 0.79019243 2.1220002
-0.97612005 0.79019243 2.1220002
-0.97207814 0.79019243 2.1220002
-0.96803623 0.79019243 2.1220002
-0.96399432 0.79019243 2.1220002
-0.95995247 0.79019243 2.1220002
-0.95591056 0.79019243 2.1220002
-0.95186865 0.79019243 2.1220002
-0.94782674 0.79019243 2.1220002
-0.94378483 0.79019243 2.1220002
-0.93974292 0.79019243 2.1220002
-0.93570101 0.79019243 2.1220002
-0.9316591 0.79019243 2.1220002
-0.92761719 0.79019243 2.1220002
-0.92357528 0.79019243 2.1220002
-0.91953337 0.79019243 2.1220002
-0.91549146 0.79019243 2.1220002
-0.91144961 0.79019243 2.1220002
-0.9074077 0.79019243 2.1220002
-0.90336579 0.79019243 2.1220002
-0.89932388 0.79019243 2.1220002
-0.89528197 0.79019243 2.1220002
-0.89124006 0.79019243 2.1220002
-0.88719815 0.79019243 2.1220002
-0.88315624 0.79019243 2.1220002
-0.87911433 0.79019243 2.1220002
-0.87507242 0.79019243 2.1220002
-0.87103051 0.79019243 2.1220002
-0.8669886 0.79019243 2.1220002
-0.86294675 0.79019243 2.1220002
-0.85890484 0.79019243 2.1220002
-0.85486293 0.79019243 2.1220002
-0.85082102 0.79019243 2.1220002
-0.84677911 0.79019243 2.1220002
-0.8427372 0.79019243 2.1220002
-0.83869529 0.79019243 2.1220002
-0.83465338 0.79019243 2.1220002
-0.83061147 0.79019243 2.1220002
-0.82656956 0.79019243 2.1220002
-0.82252765 0.79019243 2.1220002
-0.8184858 0.79019243 2.1220002
-0.81444389 0.79019243 2.1220002
-0.81040198 0.79019243 2.1220002
-0.80636007 0.79019243 2.1220002
-0.80231816 0.79019243 2.1220002
-0.79827625 0.79019243 2.1220002
-0.79423434 0.79019243 2.1220002
-0.79019243 0.79019243 2.1220002
-0.78615052 0.79019243 2.1220002
-0.7821086 0.79019243 2.1220002
-0.77806669 0.79019243 2.1220002
-0.77402478 0.79019243 2.1220002
-0.76998293 0.79019243 2.1220002
-0.76594102 0.79019243 2.1220002
-0.76189911 0.79019243 2.1220002
-0.7578572 0.79019243 2.1220002
-0.75381529 0.79019243 2.1220002
-0.74977338 0.79019243 2.1220002
-0.74573147 0.79019243 2.1220002
-0.74168956 0.79019243 2.1220002
-0.73764765 0.79019243 2.1220002
-0.73360574 0.79019243 2.1220002
-0.72956383 0.79019243 2.1220002
-0.72552198 0.79019243 2.1220002
-0.72148007 0.79019243 2.1220002
-0.71743816 0.79019243 2.1220002
-0.71339625 0.79019243 2.1220002
-0.70935434 0.79019243 2.1220002
-0.70531243 0.79019243 2.1220002
-0.70127052 0.79019243 2.1220002
-0.69722861 0.79019243 2.1220002
-0.6931867 0.79019243 2.1220002
-0.68914479 0.79019243 2.1220002
-0.68510288 0.79019243 2.1220002
-0.68106097 0.79019243 2.1220002
-0.67701912 0.79019243 2.1220002
-0.67297721 0.79019243 2.1220002
-0.6689353 0.79019243 2.1220002
-0.66489339 0.79019243 2.1220002
-0.66085148 0.79019243 2.1220002
-0.65680957 0.79019243 2.1220002
-0.65276766 0.79019243 2.1220002
-0.64872575 0.79019243 2.1220002
-0.64468384 0.79019243 2.1220002
-0.64064193 0.79019243 2.1220002
-0.63660002 0.79019243 2.1220002
-0.63255811 0.79019243 2.1220002
-0.62851626 0.79019243 2.1220002
-0.62447435 0.79019243 2.1220002
-0.62043244 0.79019243 2.1220002
-0.61639053 0.79019243 2.1220002
-0.61234862 0.79019243 2.1220002
-0.60830671 0.79019243 2.1220002
-0.6042648 0.79019243 2.1220002
-0.60022289 0.79019243 2.1220002
-0.59618098 0.79019243 2.1220002
-0.59213907 0.79019243 2.1220002
-0.58809716 0.79019243 2.1220002
-0.5840553 0.79019243 2.1220002
-0.58001339 0.79019243 2.1220002
-0.57597148 0.79019243 2.1220002
-0.57192957 0.79019243 2.1220002
-0.56788766 0.79019243 2.1220002
-0.56384575 0.79019243 2.1220002
-0.55980384 0.79019243 2.1220002
-0.55576193 0.79019243 2.1220002
-0.55172002 0.79019243 2.1220002
-0.54767811 0.79019243 2.1220002
-0.5436362 0.79019243 2.1220002
-0.53959429 0.79019243 2.1220002
-0.53555244 0.79019243 2.1220002
-0.53151053 0.79019243 2.1220002
-0.52746862 0.79019243 2.1220002
-0.52342671 0.79019243 2.1220002
-0.5193848 0.79019243 2.1220002
-0.51534289 0.79019243 2.1220002
-0.51130098 0.79019243 2.1220002
-0.50725907 0.79019243 2.1220002
-0.50321716 0.79019243 2.1220002
-0.49917528 0.79019243 2.1220002
-0.49513337 0.79019243 2.1220002
-0.49109146 0.79019243 2.1220002
-0.48704955 0.79019243 2.1220002
-0.48300764 0.79019243 2.1220002
-0.47896576 0.79019243 2.1220002
-0.47492385 0.79019243 2.1220002
-0.47088194 0.79019243 2.1220002
-0.46684003 0.79019243 2.1220002
-0.46279812 0.79019243 2.1220002
-0.45875621 0.79019243 2.1220002
-0.45471433 0.79019243 2.1220002
-0.45067242 0.79019243 2.1220002
-0.44663051 0.79019243 2.1220002
-0.4425886 0.79019243 2.1220002
-0.41395336 0.74587911 2.003
-0.40993336 0.7455067 2.0020001
-0.40591717 0.74513435 2.0010002
-0.40190479 0.74476194 2
-0.39729908 0.74327242 1.9960001
-0.39231431 0.74103814 1.9900001
-0.38852385 0.74103814 1.9900001
-0.38473335 0.74103814 1.9900001
-0.38094288 0.74103814 1.9900001
-0.37563622 0.7380591 1.9820001
-0.37186098 0.7380591 1.9820001
-0.36808574 0.7380591 1.9820001
-0.36412668 0.73768669 1.9810001
-0.36035335 0.73768669 1.9810001
-0.35640001 0.73731434 1.9800001
-0.35262859 0.73731434 1.9800001
-0.34868097 0.73694193 1.9790001
-0.34491146 0.73694193 1.9790001
-0.34096953 0.73656958 1.978
-0.33720192 0.73656958 1.978
-0.33343431 0.73656958 1.978
-0.32950002 0.73619717 1.9770001
-0.32573432 0.73619717 1.9770001
-0.32180575 0.73582482 1.9760001
-0.31804192 0.73582482 1.9760001
-0.31427813 0.73582482 1.9760001
-0.31035715 0.73545241 1.9750001
-0.30644003 0.73508006 1.9740001
-0.30268002 0.73508006 1.9740001
-0.29892001 0.73508006 1.9740001
-0.29501051 0.73470765 1.973
-0.2912524 0.73470765 1.973
-0.28866002 0.73768669 1.9810001
-0.2835924 0.7343353 1.9720001
-0.27983621 0.7343353 1.9720001
-0.27594003 0.73396289 1.9710001
-0.27218574 0.73396289 1.9710001
-0.26829526 0.73359054 1.9700001
-0.26454288 0.73359054 1.9700001
-0.26065812 0.73321813 1.9690001
-0.25690764 0.73321813 1.9690001
-0.25367144 0.73470765 1.973
-0.24991335 0.73470765 1.973
-0.24603049 0.7343353 1.9720001
-0.2422743 0.7343353 1.9720001
-0.2385181 0.7343353 1.9720001
-0.23476192 0.7343353 1.9720001
-0.23088859 0.73396289 1.9710001
-0.2271343 0.73396289 1.9710001
-0.22338001 0.73396289 1.9710001
-0.21962573 0.73396289 1.9710001
-0.21587144 0.73396289 1.9710001
-0.21200953 0.73359054 1.9700001
-0.20825715 0.73359054 1.9700001
-0.20450477 0.73359054 1.9700001
-0.20075239 0.73359054 1.9700001
-0.19690001 0.73321813 1.9690001
-0.19314954 0.73321813 1.9690001
-0.18939906 0.73321813 1.9690001
-0.18564859 0.73321813 1.9690001
-0.1818981 0.73321813 1.9690001
-0.17814763 0.73321813 1.9690001
-0.17439716 0.73321813 1.9690001
-0.17064668 0.73321813 1.9690001
-0.16689619 0.73321813 1.9690001
-0.16322859 0.73359054 1.9700001
-0.15947621 0.73359054 1.9700001
-0.1561981 0.73582482 1.9760001
-0.1518943 0.73321813 1.9690001
-0.14814381 0.73321813 1.9690001
-0.14439334 0.73321813 1.9690001
-0.14064287 0.73321813 1.9690001
-0.13689239 0.73321813 1.9690001
-0.13314192 0.73321813 1.9690001
-0.12945715 0.73359054 1.9700001
-0.12557715 0.73284578 1.9680001
-0.12189049 0.73321813 1.9690001
-0.1182 0.73359054 1.9700001
-0.11438953 0.73321813 1.9690001
-0.11063906 0.73321813 1.9690001
-0.10683429 0.73284578 1.9680001
-0.10303334 0.73247337 1.9670001
-0.09918572 0.73172861 1.9650002
-0.09558858 0.73284578 1.9680001
-0.091793336 0.73247337 1.9670001
-0.088001907 0.73210102 1.9660001
-0.084257148 0.73210102 1.9660001
-0.08051239 0.73210102 1.9660001
-0.076728575 0.73172861 1.9650002
-0.072985716 0.73172861 1.9650002
-0.069348574 0.73284578 1.9680001
-0.065566674 0.73247337 1.9670001
-0.061820004 0.73247337 1.9670001
-0.058073338 0.73247337 1.9670001
-0.054299053 0.73210102 1.9660001
-0.05055429 0.73210102 1.9660001
-0.046785716 0.73172861 1.9650002
-0.043283813 0.73582482 1.9760001
-0.039540004 0.73619717 1.9770001
-0.035774287 0.73619717 1.9770001
-0.031830478 0.73210102 1.9660001
-0.028142858 0.73359054 1.9700001
-0.024390478 0.73359054 1.9700001
-0.020638097 0.73359054 1.9700001
-0.016885715 0.73359054 1.9700001
0.013173334 0.73582482 1.9760001
0.016945716 0.73619717 1.9770001
0.020596191 0.73210102 1.9660001
0.024316192 0.73135626 1.9640001
0.028057145 0.73135626 1.9640001
0.031798098 0.73135626 1.9640001
0.035557143 0.73172861 1.9650002
0.039260004 0.73098385 1.9630001
0.042955242 0.73023909 1.9610001
0.046738099 0.73098385 1.9630001
0.050477147 0.73098385 1.9630001
0.054243814 0.73135626 1.9640001
0.058014289 0.73172861 1.9650002
0.061945718 0.73396289 1.9710001
0.065500006 0.73172861 1.9650002
0.069172382 0.73098385 1.9630001
0.072911434 0.73098385 1.9630001
0.076650478 0.73098385 1.9630001
0.080389529 0.73098385 1.9630001
0.084085718 0.7306115 1.9620001
0.088001907 0.73210102 1.9660001
0.091700003 0.73172861 1.9650002
0.12250953 0.73694193 1.9790001
0.12647049 0.7380591 1.9820001
0.13037716 0.73880386 1.9840001
0.13429144 0.73954862 1.9860001
0.13814382 0.73992097 1.9870001
0.142 0.74029338 1.988
0.15965524 0.79019243 2.1220002
0.16369715 0.79019243 2.1220002
0.16773906 0.79019243 2.1220002
0.17178096 0.79019243 2.1220002
0.17582287 0.79019243 2.1220002
0.17986478 0.79019243 2.1220002
0.18390667 0.79019243 2.1220002
0.18794858 0.79019243 2.1220002
0.19199049 0.79019243 2.1220002
0.19603239 0.79019243 2.1220002
0.2000743 0.79019243 2.1220002
0.20411621 0.79019243 2.1220002
0.20815811 0.79019243 2.1220002
0.21220002 0.79019243 2.1220002
0.21624193 0.79019243 2.1220002
0.22028382 0.79019243 2.1220002
0.22432573 0.79019243 2.1220002
0.22836763 0.79019243 2.1220002
0.23240954 0.79019243 2.1220002
0.23645145 0.79019243 2.1220002
0.24049334 0.79019243 2.1220002
0.24453525 0.79019243 2.1220002
0.24857716 0.79019243 2.1220002
0.25261906 0.79019243 2.1220002
0.25666097 0.79019243 2.1220002
0.26070288 0.79019243 2.1220002
0.26474479 0.79019243 2.1220002
0.2687867 0.79019243 2.1220002
0.27282858 0.79019243 2.1220002
0.27687049 0.79019243 2.1220002
0.2809124 0.79019243 2.1220002
0.28495431 0.79019243 2.1220002
0.28899622 0.79019243 2.1220002
0.2930381 0.79019243 2.1220002
0.29708001 0.79019243 2.1220002
0.30112192 0.79019243 2.1220002
0.30516383 0.79019243 2.1220002
0.30920574 0.79019243 2.1220002
0.31324765 0.79019243 2.1220002
0.31728953 0.79019243 2.1220002
0.32133144 0.79019243 2.1220002
0.33749908 0.79019243 2.1220002
0.50725907 0.79019243 2.1220002
0.51130098 0.79019243 2.1220002
0.51534289 0.79019243 2.1220002
0.5193848 0.79019243 2.1220002
0.52342671 0.79019243 2.1220002
0.52746862 0.79019243 2.1220002
0.53151053 0.79019243 2.1220002
0.53555244 0.79019243 2.1220002
0.53959429 0.79019243 2.1220002
0.5436362 0.79019243 2.1220002
0.54767811 0.79019243 2.1220002
0.55172002 0.79019243 2.1220002
0.55576193 0.79019243 2.1220002
0.55980384 0.79019243 2.1220002
0.56384575 0.79019243 2.1220002
0.56788766 0.79019243 2.1220002
0.57192957 0.79019243 2.1220002
0.57597148 0.79019243 2.1220002
0.58001339 0.79019243 2.1220002
0.5840553 0.79019243 2.1220002
0.58809716 0.79019243 2.1220002
0.59213907 0.79019243 2.1220002
0.59618098 0.79019243 2.1220002
0.60022289 0.79019243 2.1220002
0.6042648 0.79019243 2.1220002
0.60830671 0.79019243 2.1220002
0.61234862 0.79019243 2.1220002
0.61639053 0.79019243 2.1220002
0.62043244 0.79019243 2.1220002
0.62447435 0.79019243 2.1220002
0.62851626 0.79019243 2.1220002
0.63255811 0.79019243 2.1220002
0.63660002 0.79019243 2.1220002
0.64064193 0.79019243 2.1220002
0.64468384 0.79019243 2.1220002
0.64872575 0.79019243 2.1220002
0.65276766 0.79019243 2.1220002
0.65680957 0.79019243 2.1220002
0.66085148 0.79019243 2.1220002
0.66489339 0.79019243 2.1220002
0.6689353 0.79019243 2.1220002
0.67297721 0.79019243 2.1220002
0.67701912 0.79019243 2.1220002
0.68106097 0.79019243 2.1220002
0.68510288 0.79019243 2.1220002
0.68914479 0.79019243 2.1220002
0.6931867 0.79019243 2.1220002
0.69722861 0.79019243 2.1220002
0.70127052 0.79019243 2.1220002
0.70531243 0.79019243 2.1220002
0.70935434 0.79019243 2.1220002
0.71339625 0.79019243 2.1220002
0.71743816 0.79019243 2.1220002
0.72148007 0.79019243 2.1220002
0.72552198 0.79019243 2.1220002
0.72956383 0.79019243 2.1220002
0.73360574 0.79019243 2.1220002
0.73764765 0.79019243 2.1220002
0.74168956 0.79019243 2.1220002
0.74573147 0.79019243 2.1220002
0.74977338 0.79019243 2.1220002
0.75381529 0.79019243 2.1220002
0.7578572 0.79019243 2.1220002
0.76189911 0.79019243 2.1220002
0.76594102 0.79019243 2.1220002
0.76998293 0.79019243 2.1220002
0.77402478 0.79019243 2.1220002
0.77806669 0.79019243 2.1220002
0.7821086 0.79019243 2.1220002
0.78615052 0.79019243 2.1220002
0.79019243 0.79019243 2.1220002
0.79423434 0.79019243 2.1220002
0.79827625 0.79019243 2.1220002
0.80231816 0.79019243 2.1220002
0.80636007 0.79019243 2.1220002
0.81040198 0.79019243 2.1220002
0.81444389 0.79019243 2.1220002
0.8184858 0.79019243 2.1220002
0.82252765 0.79019243 2.1220002
0.82656956 0.79019243 2.1220002
0.83061147 0.79019243 2.1220002
0.83465338 0.79019243 2.1220002
0.83869529 0.79019243 2.1220002
0.8427372 0.79019243 2.1220002
0.84677911 0.79019243 2.1220002
0.85082102 0.79019243 2.1220002
0.85486293 0.79019243 2.1220002
0.86052388 0.79168195 2.1260002
0.86701339 0.79391623 2.1320002
0.87393433 0.79652292 2.1390002
-1.116823 0.79947436 2.1360002
-1.1033772 0.79273719 2.118
-1.0962286 0.79049146 2.112
-1.0922058 0.79049146 2.112
-1.0881829 0.79049146 2.112
-1.0841601 0.79049146 2.112
-1.0801373 0.79049146 2.112
-1.0761143 0.79049146 2.112
-1.0720915 0.79049146 2.112
-1.0680686 0.79049146 2.112
-1.0640458 0.79049146 2.112
-1.060023 0.79049146 2.112
-1.0560001 0.79049146 2.112
-1.0519772 0.79049146 2.112
-1.0479543 0.79049146 2.112
-1.0439315 0.79049146 2.112
-1.0399086 0.79049146 2.112
-1.0358858 0.79049146 2.112
-1.031863 0.79049146 2.112
-1.02784 0.79049146 2.112
-1.0238172 0.79049146 2.112
-1.0197943 0.79049146 2.112
-1.0157715 0.79049146 2.112
-1.0117487 0.79049146 2.112
-1.0077258 0.79049146 2.112
-1.0037029 0.79049146 2.112
-0.99968004 0.79049146 2.112
-0.99565721 0.79049146 2.112
-0.99163437 0.79049146 2.112
-0.98761147 0.79049146 2.112
-0.98358864 0.79049146 2.112
-0.9795658 0.79049146 2.112
-0.9755429 0.79049146 2.112
-0.97152007 0.79049146 2.112
-0.96749723 0.79049146 2.112
-0.96347433 0.79049146 2.112
-0.9594515 0.79049146 2.112
-0.95542866 0.79049146 2.112
-0.95140576 0.79049146 2.112
-0.94738293 0.79049146 2.112
-0.94336009 0.79049146 2.112
-0.93933719 0.79049146 2.112
-0.93531436 0.79049146 2.112
-0.93129146 0.79049146 2.112
-0.92726862 0.79049146 2.112
-0.92324579 0.79049146 2.112
-0.91922289 0.79049146 2.112
-0.91520005 0.79049146 2.112
-0.91117722 0.79049146 2.112
-0.90715432 0.79049146 2.112
-0.90313148 0.79049146 2.112
-0.89910865 0.79049146 2.112
-0.89508575 0.79049146 2.112
-0.89106292 0.79049146 2.112
-0.88704008 0.79049146 2.112
-0.88301718 0.79049146 2.112
-0.87899435 0.79049146 2.112
-0.87497151 0.79049146 2.112
-0.87094861 0.79049146 2.112
-0.86692578 0.79049146 2.112
-0.86290294 0.79049146 2.112
-0.85888004 0.79049146 2.112
-0.85485721 0.79049146 2.112
-0.85083437 0.79049146 2.112
-0.84681147 0.79049146 2.112
-0.84278864 0.79049146 2.112
-0.83876574 0.79049146 2.112
-0.8347429 0.79049146 2.112
-0.83072007 0.79049146 2.112
-0.82669717 0.79049146 2.112
-0.82267433 0.79049146 2.112
-0.8186515 0.79049146 2.112
-0.8146286 0.79049146 2.112
-0.81060576 0.79049146 2.112
-0.80658293 0.79049146 2.112
-0.80256003 0.79049146 2.112
-0.79853719 0.79049146 2.112
-0.79451436 0.79049146 2.112
-0.79049146 0.79049146 2.112
-0.78646863 0.79049146 2.112
-0.78244579 0.79049146 2.112
-0.77842289 0.79049146 2.112
-0.77440006 0.79049146 2.112
-0.77037722 0.79049146 2.112
-0.76635432 0.79049146 2.112
-0.76233149 0.79049146 2.112
-0.75830865 0.79049146 2.112
-0.75428575 0.79049146 2.112
-0.75026292 0.79049146 2.112
-0.74624002 0.79049146 2.112
-0.74221718 0.79049146 2.112
-0.73819435 0.79049146 2.112
-0.73417145 0.79049146 2.112
-0.73014861 0.79049146 2.112
-0.72612578 0.79049146 2.112
-0.72210288 0.79049146 2.112
-0.71808004 0.79049146 2.112
-0.71405721 0.79049146 2.112
-0.71003431 0.79049146 2.112
-0.70601147 0.79049146 2.112
-0.70198864 0.79049146 2.112
-0.69796574 0.79049146 2.112
-0.6939429 0.79049146 2.112
-0.68992007 0.79049146 2.112
-0.68589717 0.79049146 2.112
-0.68187433 0.79049146 2.112
-0.6778515 0.79049146 2.112
-0.6738286 0.79049146 2.112
-0.66980577 0.79049146 2.112
-0.66578293 0.79049146 2.112
-0.66176003 0.79049146 2.112
-0.6577372 0.79049146 2.112
-0.6537143 0.79049146 2.112
-0.64969146 0.79049146 2.112
-0.64566863 0.79049146 2.112
-0.64164573 0.79049146 2.112
-0.63762289 0.79049146 2.112
-0.63360006 0.79049146 2.112
-0.62957716 0.79049146 2.112
-0.62555432 0.79049146 2.112
-0.62153149 0.79049146 2.112
-0.61750859 0.79049146 2.112
-0.61348575 0.79049146 2.112
-0.60946292 0.79049146 2.112
-0.60544002 0.79049146 2.112
-0.60141718 0.79049146 2.112
-0.59739435 0.79049146 2.112
-0.59337145 0.79049146 2.112
-0.58934861 0.79049146 2.112
-0.58532578 0.79049146 2.112
-0.58130288 0.79049146 2.112
-0.57728004 0.79049146 2.112
-0.57325721 0.79049146 2.112
-0.56923431 0.79049146 2.112
-0.56521147 0.79049146 2.112
-0.56118858 0.79049146 2.112
-0.55716574 0.79049146 2.112
-0.55314291 0.79049146 2.112
-0.54912001 0.79049146 2.112
-0.54509717 0.79049146 2.112
-0.54107434 0.79049146 2.112
-0.53705144 0.79049146 2.112
-0.5330286 0.79049146 2.112
-0.52900577 0.79049146 2.112
-0.52498287 0.79049146 2.112
-0.52096003 0.79049146 2.112
-0.5169372 0.79049146 2.112
-0.5129143 0.79049146 2.112
-0.50889146 0.79049146 2.112
-0.50486863 0.79049146 2.112
-0.50084573 0.79049146 2.112
-0.49682289 0.79049146 2.112
-0.49280003 0.79049146 2.112
-0.48877716 0.79049146 2.112
-0.48475432 0.79049146 2.112
-0.48073146 0.79049146 2.112
-0.47670859 0.79049146 2.112
-0.47268575 0.79049146 2.112
-0.46866289 0.79049146 2.112
-0.46464002 0.79049146 2.112
-0.46061718 0.79049146 2.112
-0.45659432 0.79049146 2.112
-0.45257145 0.79049146 2.112
-0.44854861 0.79049146 2.112
-0.44452575 0.79049146 2.112
-0.44050288 0.79049146 2.112
-0.41271335 0.74744862 1.9970001
-0.40870479 0.74707431 1.9960001
-0.40470004 0.74670005 1.9950001
-0.40009621 0.7452029 1.9910001
-0.39471146 0.7422086 1.983
-0.39073718 0.74183434 1.9820001
-0.38696194 0.74183434 1.9820001
-0.3831867 0.74183434 1.9820001
-0.37941146 0.74183434 1.9820001
-0.37563622 0.74183434 1.9820001
-0.37186098 0.74183434 1.9820001
-0.36790001 0.74146003 1.9810001
-0.36394289 0.74108577 1.9800001
-0.36017147 0.74108577 1.9800001
-0.35640001 0.74108577 1.9800001
-0.35245049 0.74071145 1.9790001
-0.34868097 0.74071145 1.9790001
-0.34473717 0.74033719 1.978
-0.34096953 0.74033719 1.978
-0.33703145 0.73996294 1.9770001
-0.33326572 0.73996294 1.9770001
-0.32933336 0.73958862 1.9760001
-0.32556954 0.73958862 1.9760001
-0.32180575 0.73958862 1.9760001
-0.31788099 0.73921436 1.9750001
-0.31411907 0.73921436 1.9750001
-0.31035715 0.73921436 1.9750001
-0.30644003 0.73884004 1.9740001
-0.30252668 0.73846579 1.973
-0.29876858 0.73846579 1.973
-0.29486096 0.73809147 1.9720001
-0.29110479 0.73809147 1.9720001
-0.2873486 0.73809147 1.9720001
-0.28344858 0.73771721 1.9710001
-0.27969432 0.73771721 1.9710001
-0.27594003 0.73771721 1.9710001
-0.27204764 0.73734289 1.9700001
-0.26815906 0.73696864 1.9690001
-0.26440859 0.73696864 1.9690001
-0.26065812 0.73696864 1.9690001
-0.25677717 0.73659432 1.9680001
-0.2530286 0.73659432 1.9680001
-0.24915335 0.73622006 1.9670001
-0.24540669 0.73622006 1.9670001
-0.24166001 0.73622006 1.9670001
-0.2377924 0.73584574 1.9660001
-0.23404764 0.73584574 1.9660001
-0.23018573 0.73547149 1.9650002
-0.22644287 0.73547149 1.9650002
-0.22258668 0.73509717 1.9640001
-0.21884573 0.73509717 1.9640001
-0.21510477 0.73509717 1.9640001
-0.21125621 0.73472291 1.9630001
-0.20751716 0.73472291 1.9630001
-0.2036743 0.7343486 1.9620001
-0.19993715 0.7343486 1.9620001
-0.19620001 0.7343486 1.9620001
-0.19236477 0.73397434 1.9610001
-0.18853335 0.73360002 1.96
-0.18480001 0.73360002 1.96
-0.18106668 0.73360002 1.96
-0.17769524 0.73509717 1.9640001
-0.17386572 0.73472291 1.9630001
-0.17012668 0.73472291 1.9630001
-0.16638763 0.73472291 1.9630001
-0.16264859 0.73472291 1.9630001
-0.15874763 0.73397434 1.9610001
-0.15596096 0.73846579 1.973
-0.1513543 0.7343486 1.9620001
-0.14761715 0.7343486 1.9620001
-0.14388001 0.7343486 1.9620001
-0.14007144 0.73397434 1.9610001
-0.13640572 0.7343486 1.9620001
-0.13273621 0.73472291 1.9630001
-0.12926 0.73622006 1.9670001
-0.1251943 0.7343486 1.9620001
-0.12139525 0.73397434 1.9610001
-0.11760001 0.73360002 1.96
-0.11386667 0.73360002 1.96
-0.11018953 0.73397434 1.9610001
-0.10650858 0.7343486 1.9620001
-0.10287619 0.73509717 1.9640001
-0.098983817 0.73397434 1.9610001
-0.09524858 0.73397434 1.9610001
-0.091420002 0.73322576 1.9590001
-0.08768858 0.73322576 1.9590001
-0.084000006 0.73360002 1.96
-0.080266669 0.73360002 1.96
-0.07653334 0.73360002 1.96
-0.072725721 0.73285151 1.9580001
-0.06931334 0.73622006 1.9670001
-0.065566674 0.73622006 1.9670001
-0.061788574 0.73584574 1.9660001
-0.058043815 0.73584574 1.9660001
-0.054271434 0.73547149 1.9650002
-0.050528575 0.73547149 1.9650002
-0.046785716 0.73547149 1.9650002
-0.043152384 0.73734289 1.9700001
-0.039400004 0.73734289 1.9700001
-0.035484765 0.73397434 1.9610001
-0.031781908 0.73472291 1.9630001
-0.028028574 0.7343486 1.9620001
-0.024279049 0.73397434 1.9610001
-0.020554287 0.7343486 1.9620001
-0.016825715 0.73472291 1.9630001
-0.0093761915 0.73696864 1.9690001
-0.0056257145 0.73696864 1.9690001
-0.0018752383 0.73696864 1.9690001
0.0018752383 0.73696864 1.9690001
0.0056257145 0.73696864 1.9690001
0.0093761915 0.73696864 1.9690001
0.013126668 0.73696864 1.9690001
0.016860001 0.73622006 1.9670001
0.020470478 0.73135436 1.9540001
0.024217144 0.73210293 1.9560001
0.027928574 0.73172861 1.955
0.031652384 0.73172861 1.955
0.035376191 0.73172861 1.955
0.039180003 0.73322576 1.9590001
0.042845719 0.73210293 1.9560001
0.046595242 0.73247719 1.9570001
0.05032286 0.73247719 1.9570001
0.054050479 0.73247719 1.9570001
0.057807624 0.73285151 1.9580001
0.061788574 0.73584574 1.9660001
0.065266669 0.73285151 1.9580001
0.068925716 0.73210293 1.9560001
0.072651431 0.73210293 1.9560001
0.076377146 0.73210293 1.9560001
0.080020957 0.73135436 1.9540001
0.083871432 0.73247719 1.9570001
0.087643817 0.73285151 1.9580001
0.091280006 0.73210293 1.9560001
0.09490858 0.73135436 1.9540001
0.098680958 0.73172861 1.955
0.10245715 0.73210293 1.9560001
0.10623715 0.73247719 1.9570001
0.11450572 0.73771721 1.9710001
0.11826001 0.73771721 1.9710001
0.1220762 0.73809147 1.9720001
0.12602381 0.73921436 1.9750001
0.12991714 0.73996294 1.9770001
0.13375048 0.74033719 1.978
0.13765715 0.74108577 1.9800001
0.15890287 0.79049146 2.112
0.16292572 0.79049146 2.112
0.16694859 0.79049146 2.112
0.17097144 0.79049146 2.112
0.17499429 0.79049146 2.112
0.17901716 0.79049146 2.112
0.18304001 0.79049146 2.112
0.18706287 0.79049146 2.112
0.19108573 0.79049146 2.112
0.19510858 0.79049146 2.112
0.19913144 0.79049146 2.112
0.2031543 0.79049146 2.112
0.20717716 0.79049146 2.112
0.21120001 0.79049146 2.112
0.21522287 0.79049146 2.112
0.21924573 0.79049146 2.112
0.22326858 0.79049146 2.112
0.22729145 0.79049146 2.112
0.2313143 0.79049146 2.112
0.23533715 0.79049146 2.112
0.23936002 0.79049146 2.112
0.24338287 0.79049146 2.112
0.24740574 0.79049146 2.112
0.25142857 0.79049146 2.112
0.25545144 0.79049146 2.112
0.25947431 0.79049146 2.112
0.26349717 0.79049146 2.112
0.26752001 0.79049146 2.112
0.27154288 0.79049146 2.112
0.27556574 0.79049146 2.112
0.27958858 0.79049146 2.112
0.28361145 0.79049146 2.112
0.28763431 0.79049146 2.112
0.29165715 0.79049146 2.112
0.29568002 0.79049146 2.112
0.29970288 0.79049146 2.112
0.30372572 0.79049146 2.112
0.30774859 0.79049146 2.112
0.31177145 0.79049146 2.112
0.31579432 0.79049146 2.112
0.31981716 0.79049146 2.112
0.50486863 0.79049146 2.112
0.50889146 0.79049146 2.112
0.5129143 0.79049146 2.112
0.5169372 0.79049146 2.112
0.52096003 0.79049146 2.112
0.52498287 0.79049146 2.112
0.52900577 0.79049146 2.112
0.5330286 0.79049146 2.112
0.53705144 0.79049146 2.112
0.54107434 0.79049146 2.112
0.54509717 0.79049146 2.112
0.54912001 0.79049146 2.112
0.55314291 0.79049146 2.112
0.55716574 0.79049146 2.112
0.56118858 0.79049146 2.112
0.56521147 0.79049146 2.112
0.56923431 0.79049146 2.112
0.57325721 0.79049146 2.112
0.57728004 0.79049146 2.112
0.58130288 0.79049146 2.112
0.58532578 0.79049146 2.112
0.58934861 0.79049146 2.112
0.59337145 0.79049146 2.112
0.59739435 0.79049146 2.112
0.60141718 0.79049146 2.112
0.60544002 0.79049146 2.112
0.60946292 0.79049146 2.112
0.61348575 0.79049146 2.112
0.61750859 0.79049146 2.112
0.62153149 0.79049146 2.112
0.62555432 0.79049146 2.112
0.62957716 0.79049146 2.112
0.63360006 0.79049146 2.112
0.63762289 0.79049146 2.112
0.64164573 0.79049146 2.112
0.64566863 0.79049146 2.112
0.64969146 0.79049146 2.112
0.6537143 0.79049146 2.112
0.6577372 0.79049146 2.112
0.66176003 0.79049146 2.112
0.66578293 0.79049146 2.112
0.66980577 0.79049146 2.112
0.6738286 0.79049146 2.112
0.6778515 0.79049146 2.112
0.68187433 0.79049146 2.112
0.68589717 0.79049146 2.112
0.68992007 0.79049146 2.112
0.6939429 0.79049146 2.112
0.69796574 0.79049146 2.112
0.70198864 0.79049146 2.112
0.70601147 0.79049146 2.112
0.71003431 0.79049146 2.112
0.71405721 0.79049146 2.112
0.71808004 0.79049146 2.112
0.72210288 0.79049146 2.112
0.72612578 0.79049146 2.112
0.73014861 0.79049146 2.112
0.73417145 0.79049146 2.112
0.73819435 0.79049146 2.112
0.74221718 0.79049146 2.112
0.74624002 0.79049146 2.112
0.75026292 0.79049146 2.112
0.75428575 0.79049146 2.112
0.75830865 0.79049146 2.112
0.76233149 0.79049146 2.112
0.76635432 0.79049146 2.112
0.77037722 0.79049146 2.112
0.77440006 0.79049146 2.112
0.77842289 0.79049146 2.112
0.78244579 0.79049146 2.112
0.78646863 0.79049146 2.112
0.79049146 0.79049146 2.112
0.79451436 0.79049146 2.112
0.79853719 0.79049146 2.112
0.80256003 0.79049146 2.112
0.80658293 0.79049146 2.112
0.81060576 0.79049146 2.112
0.8146286 0.79049146 2.112
0.8186515 0.79049146 2.112
0.82267433 0.79049146 2.112
0.82669717 0.79049146 2.112
0.83072007 0.79049146 2.112
0.8347429 0.79049146 2.112
0.83876574 0.79049146 2.112
0.84278864 0.79049146 2.112
0.84681147 0.79049146 2.112
0.85083437 0.79049146 2.112
0.85485721 0.79049146 2.112
0.8609134 0.79236293 2.1170001
0.86739719 0.79460865 2.1230001
0.87431437 0.79722863 2.1300001
-1.108822 0.79489052 2.1130002
-1.0995686 0.79112864 2.1030002
-1.0955629 0.79112864 2.1030002
-1.0915573 0.79112864 2.1030002
-1.0875515 0.79112864 2.1030002
-1.0835458 0.79112864 2.1030002
-1.07954 0.79112864 2.1030002
-1.0755343 0.79112864 2.1030002
-1.0715287 0.79112864 2.1030002
-1.0675229 0.79112864 2.1030002
-1.0635172 0.79112864 2.1030002
-1.0595115 0.79112864 2.1030002
-1.0555058 0.79112864 2.1030002
-1.0515001 0.79112864 2.1030002
-1.0474944 0.79112864 2.1030002
-1.0434886 0.79112864 2.1030002
-1.039483 0.79112864 2.1030002
-1.0354772 0.79112864 2.1030002
-1.0314715 0.79112864 2.1030002
-1.0274658 0.79112864 2.1030002
-1.02346 0.79112864 2.1030002
-1.0194544 0.79112864 2.1030002
-1.0154487 0.79112864 2.1030002
-1.0114429 0.79112864 2.1030002
-1.0074372 0.79112864 2.1030002
-1.0034314 0.79112864 2.1030002
-0.99942577 0.79112864 2.1030002
-0.99542004 0.79112864 2.1030002
-0.99141437 0.79112864 2.1030002
-0.98740864 0.79112864 2.1030002
-0.98340291 0.79112864 2.1030002
-0.97939718 0.79112864 2.1030002
-0.97539151 0.79112864 2.1030002
-0.97138578 0.79112864 2.1030002
-0.96738005 0.79112864 2.1030002
-0.96337438 0.79112864 2.1030002
-0.95936865 0.79112864 2.1030002
-0.95536292 0.79112864 2.1030002
-0.95135719 0.79112864 2.1030002
-0.94735152 0.79112864 2.1030002
-0.94334579 0.79112864 2.1030002
-0.93934005 0.79112864 2.1030002
-0.93533432 0.79112864 2.1030002
-0.93132865 0.79112864 2.1030002
-0.92732292 0.79112864 2.1030002
-0.92331719 0.79112864 2.1030002
-0.91931146 0.79112864 2.1030002
-0.91530579 0.79112864 2.1030002
-0.91130006 0.79112864 2.1030002
-0.90729433 0.79112864 2.1030002
-0.9032886 0.79112864 2.1030002
-0.89928293 0.79112864 2.1030002
-0.8952772 0.79112864 2.1030002
-0.89127147 0.79112864 2.1030002
-0.8872658 0.79112864 2.1030002
-0.88326007 0.79112864 2.1030002
-0.87925434 0.79112864 2.1030002
-0.87524861 0.79112864 2.1030002
-0.87124294 0.79112864 2.1030002
-0.86723721 0.79112864 2.1030002
-0.86323148 0.79112864 2.1030002
-0.85922575 0.79112864 2.1030002
-0.85522008 0.79112864 2.1030002
-0.85121435 0.79112864 2.1030002
-0.84720862 0.79112864 2.1030002
-0.84320289 0.79112864 2.1030002
-0.83919722 0.79112864 2.1030002
-0.83519149 0.79112864 2.1030002
-0.83118576 0.79112864 2.1030002
-0.82718003 0.79112864 2.1030002
-0.82317436 0.79112864 2.1030002
-0.81916863 0.79112864 2.1030002
-0.8151629 0.79112864 2.1030002
-0.81115717 0.79112864 2.1030002
-0.8071515 0.79112864 2.1030002
-0.80314577 0.79112864 2.1030002
-0.79914004 0.79112864 2.1030002
-0.79513437 0.79112864 2.1030002
-0.79112864 0.79112864 2.1030002
-0.78712291 0.79112864 2.1030002
-0.78311718 0.79112864 2.1030002
-0.7791115 0.79112864 2.1030002
-0.77510577 0.79112864 2.1030002
-0.77110004 0.79112864 2.1030002
-0.76709431 0.79112864 2.1030002
-0.76308864 0.79112864 2.1030002
-0.75908291 0.79112864 2.1030002
-0.75507718 0.79112864 2.1030002
-0.75107145 0.79112864 2.1030002
-0.74706578 0.79112864 2.1030002
-0.74306005 0.79112864 2.1030002
-0.68001431 0.72792864 1.9350001
-0.67493051 0.72642386 1.9310001
-0.67160004 0.72680002 1.932
-0.66792005 0.72680002 1.932
-0.66458386 0.72717625 1.9330001
-0.66124386 0.72755241 1.9340001
-0.65756005 0.72755241 1.9340001
-0.65421432 0.72792864 1.9350001
-0.64615816 0.72303814 1.9220001
-0.64283144 0.72341436 1.9230001
-0.64049816 0.72491908 1.927
-0.63814956 0.72642386 1.9310001
-0.63578576 0.72792864 1.9350001
-0.68698007 0.79112864 2.1030002
-0.68297434 0.79112864 2.1030002
-0.67896861 0.79112864 2.1030002
-0.67496288 0.79112864 2.1030002
-0.67095721 0.79112864 2.1030002
-0.66695148 0.79112864 2.1030002
-0.66294575 0.79112864 2.1030002
-0.65894002 0.79112864 2.1030002
-0.65493435 0.79112864 2.1030002
-0.65092862 0.79112864 2.1030002
-0.64692289 0.79112864 2.1030002
-0.64291716 0.79112864 2.1030002
-0.63891149 0.79112864 2.1030002
-0.63490576 0.79112864 2.1030002
-0.63090003 0.79112864 2.1030002
-0.62689435 0.79112864 2.1030002
-0.62288862 0.79112864 2.1030002
-0.61888289 0.79112864 2.1030002
-0.61487716 0.79112864 2.1030002
-0.61087149 0.79112864 2.1030002
-0.60686576 0.79112864 2.1030002
-0.60286003 0.79112864 2.1030002
-0.5988543 0.79112864 2.1030002
-0.59484863 0.79112864 2.1030002
-0.5908429 0.79112864 2.1030002
-0.58683717 0.79112864 2.1030002
-0.58283144 0.79112864 2.1030002
-0.57882577 0.79112864 2.1030002
-0.57482004 0.79112864 2.1030002
-0.57081431 0.79112864 2.1030002
-0.56680858 0.79112864 2.1030002
-0.56280291 0.79112864 2.1030002
-0.55879718 0.79112864 2.1030002
-0.55479145 0.79112864 2.1030002
-0.55078578 0.79112864 2.1030002
-0.54678005 0.79112864 2.1030002
-0.54277432 0.79112864 2.1030002
-0.53876859 0.79112864 2.1030002
-0.53476292 0.79112864 2.1030002
-0.53075719 0.79112864 2.1030002
-0.52675146 0.79112864 2.1030002
-0.52274573 0.79112864 2.1030002
-0.51874006 0.79112864 2.1030002
-0.51473433 0.79112864 2.1030002
-0.5107286 0.79112864 2.1030002
-0.50672287 0.79112864 2.1030002
-0.5027172 0.79112864 2.1030002
-0.49871147 0.79112864 2.1030002
-0.49470574 0.79112864 2.1030002
-0.49070004 0.79112864 2.1030002
-0.48669431 0.79112864 2.1030002
-0.48268861 0.79112864 2.1030002
-0.47868288 0.79112864 2.1030002
-0.47467718 0.79112864 2.1030002
-0.47067145 0.79112864 2.1030002
-0.46666574 0.79112864 2.1030002
-0.46266004 0.79112864 2.1030002
-0.45865431 0.79112864 2.1030002
-0.45464861 0.79112864 2.1030002
-0.45064288 0.79112864 2.1030002
-0.44663718 0.79112864 2.1030002
-0.44263145 0.79112864 2.1030002
-0.41526574 0.7489953 1.9910001
-0.41147336 0.7489953 1.9910001
-0.40747622 0.74861908 1.9900001
-0.40023717 0.74222386 1.973
-0.39607716 0.74147147 1.9710001
-0.39232287 0.74147147 1.9710001
-0.38837147 0.7410953 1.9700001
-0.38442382 0.74071908 1.9690001
-0.38067335 0.74071908 1.9690001
-0.37673146 0.74034292 1.9680001
-0.37279335 0.73996669 1.9670001
-0.36904669 0.73996669 1.9670001
-0.3651143 0.73959053 1.9660001
-0.36136955 0.73959053 1.9660001
-0.3576248 0.73959053 1.9660001
-0.35388002 0.73959053 1.9660001
-0.35013527 0.73959053 1.9660001
-0.34621429 0.73921436 1.9650002
-0.34247145 0.73921436 1.9650002
-0.33872861 0.73921436 1.9650002
-0.33498573 0.73921436 1.9650002
-0.33124289 0.73921436 1.9650002
-0.32750002 0.73921436 1.9650002
-0.32375717 0.73921436 1.9650002
-0.3200143 0.73921436 1.9650002
-0.31627145 0.73921436 1.9650002
-0.31252858 0.73921436 1.9650002
-0.30878574 0.73921436 1.9650002
-0.30504286 0.73921436 1.9650002
-0.30130002 0.73921436 1.9650002
-0.29740572 0.73883814 1.9640001
-0.29366478 0.73883814 1.9640001
