# .PCD v0.7 - Point Cloud Data file format
VERSION 0.7
FIELDS x y z
SIZE 4 4 4
TYPE F F F
COUNT 1 1 1
WIDTH 1501
HEIGHT 1
VIEWPOINT 0 0 0 1 0 0 0
POINTS 1501
DATA ascii
0.14182381 0.32074001 2.2910001
0.14612383 0.32060003 2.2900002
0.15048572 0.32060003 2.2900002
0.15491524 0.32074001 2.2910001
-0.3470524 0.3336181 2.3510001
-0.34228289 0.3333343 2.3490002
-0.33780858 0.3333343 2.3490002
-0.33319241 0.33319241 2.348
-0.32872003 0.33319241 2.348
-0.32410955 0.33305049 2.3470001
-0.31963906 0.33305049 2.3470001
-0.3150343 0.3329086 2.3460002
-0.31043336 0.33276668 2.345
-0.30596668 0.33276668 2.345
-0.30137146 0.33262479 2.3440001
-0.29690668 0.33262479 2.3440001
-0.29231715 0.33248287 2.3430002
-0.28785431 0.33248287 2.3430002
-0.28327051 0.33234099 2.342
-0.27880955 0.33234099 2.342
-0.27423143 0.33219907 2.3410001
-0.26965716 0.33205718 2.3400002
-0.26520002 0.33205718 2.3400002
-0.26063144 0.33191526 2.3390002
-0.2561762 0.33191526 2.3390002
-0.25161335 0.33177334 2.3380001
-0.24716002 0.33177334 2.3380001
-0.24270669 0.33177334 2.3380001
-0.23815145 0.33163145 2.3370001
-0.23370002 0.33163145 2.3370001
-0.22915049 0.33148953 2.3360002
-0.22470097 0.33148953 2.3360002
-0.22015716 0.33134764 2.335
-0.21561715 0.33120573 2.3340001
-0.21117145 0.33120573 2.3340001
-0.20663716 0.33106384 2.3330002
-0.20219335 0.33106384 2.3330002
-0.19766477 0.33092192 2.332
-0.19322287 0.33092192 2.332
-0.18870001 0.33078003 2.3310001
-0.18426001 0.33078003 2.3310001
-0.17974287 0.33063811 2.3300002
-0.17522953 0.33049622 2.329
-0.17079334 0.33049622 2.329
-0.16628572 0.3303543 2.3280001
-0.16185144 0.3303543 2.3280001
-0.15734953 0.33021241 2.3270001
-0.15291715 0.33021241 2.3270001
-0.14842096 0.3300705 2.3260002
-0.14399049 0.3300705 2.3260002
-0.13950001 0.32992861 2.325
-0.13507144 0.32992861 2.325
-0.13058667 0.32978669 2.3240001
-0.12610573 0.32964477 2.3230002
-0.12168096 0.32964477 2.3230002
-0.11720572 0.32950288 2.322
-0.11278287 0.32950288 2.322
-0.10831334 0.32936096 2.3210001
-0.10389239 0.32936096 2.3210001
-0.099428579 0.32921907 2.3200002
-0.095009528 0.32921907 2.3200002
-0.090551436 0.32907715 2.319
-0.086097151 0.32893527 2.3180001
-0.081646673 0.32879335 2.3170002
-0.077233337 0.32879335 2.3170002
-0.072788574 0.32865146 2.3160002
-0.068377145 0.32865146 2.3160002
-0.063938096 0.32850954 2.3150001
-0.059528574 0.32850954 2.3150001
-0.05509524 0.32836765 2.3140001
-0.050687622 0.32836765 2.3140001
-0.046260003 0.32822573 2.3130002
-0.041854288 0.32822573 2.3130002
-0.037432384 0.32808384 2.312
-0.033028573 0.32808384 2.312
-0.028612383 0.32794192 2.3110001
-0.024210477 0.32794192 2.3110001
-0.019800002 0.32780004 2.3100002
-0.015400001 0.32780004 2.3100002
-0.010995239 0.32765812 2.309
-0.0065971431 0.32765812 2.309
-0.0021980954 0.3275162 2.3080001
0.0021980954 0.3275162 2.3080001
0.006591429 0.32737431 2.3070002
0.010980953 0.32723239 2.306
0.015373334 0.32723239 2.306
0.019757144 0.3270905 2.3050001
0.02414762 0.3270905 2.3050001
0.028525716 0.32694858 2.3040001
0.032914288 0.32694858 2.3040001
0.037286669 0.32680669 2.3030002
0.041673336 0.32680669 2.3030002
0.046040002 0.32666478 2.302
0.050402861 0.32652289 2.3010001
0.054785717 0.32652289 2.3010001
0.059142862 0.32638097 2.3000002
0.063523814 0.32638097 2.3000002
0.067904763 0.32638097 2.3000002
0.072254293 0.32623908 2.299
0.076633342 0.32623908 2.299
0.080977149 0.32609716 2.2980001
0.085354291 0.32609716 2.2980001
0.089692384 0.32595527 2.2970002
0.09402667 0.32581335 2.296
0.098400004 0.32581335 2.296
0.10272858 0.32567146 2.2950001
0.10710001 0.32567146 2.2950001
0.11142287 0.32552955 2.2940001
0.11579239 0.32552955 2.2940001
0.12010953 0.32538763 2.2930002
0.12447715 0.32538763 2.2930002
0.12878858 0.32524574 2.2920001
0.13315429 0.32524574 2.2920001
0.13746001 0.32510382 2.2910001
0.14176191 0.32496193 2.2900002
0.14612383 0.32496193 2.2900002
0.15048572 0.32496193 2.2900002
0.15484762 0.32496193 2.2900002
-0.3470524 0.3380962 2.3510001
-0.34228289 0.33780858 2.3490002
-0.33780858 0.33780858 2.3490002
-0.33319241 0.33766478 2.348
-0.32872003 0.33766478 2.348
-0.32410955 0.33752099 2.3470001
-0.31963906 0.33752099 2.3470001
-0.3150343 0.33737716 2.3460002
-0.31043336 0.33723336 2.345
-0.30596668 0.33723336 2.345
-0.30137146 0.33708954 2.3440001
-0.29690668 0.33708954 2.3440001
-0.29231715 0.33694574 2.3430002
-0.28785431 0.33694574 2.3430002
-0.28327051 0.33680192 2.342
-0.27880955 0.33680192 2.342
-0.27423143 0.33665812 2.3410001
-0.26965716 0.33651429 2.3400002
-0.26520002 0.33651429 2.3400002
-0.26063144 0.3363705 2.3390002
-0.2561762 0.3363705 2.3390002
-0.25161335 0.3362267 2.3380001
-0.24716002 0.3362267 2.3380001
-0.24260287 0.33608288 2.3370001
-0.23815145 0.33608288 2.3370001
-0.23360002 0.33593908 2.3360002
-0.22915049 0.33593908 2.3360002
-0.22460477 0.33579525 2.335
-0.22006287 0.33565146 2.3340001
-0.21561715 0.33565146 2.3340001
-0.21108097 0.33550763 2.3330002
-0.20663716 0.33550763 2.3330002
-0.20210668 0.33536384 2.332
-0.19766477 0.33536384 2.332
-0.19314002 0.33522001 2.3310001
-0.18870001 0.33522001 2.3310001
-0.18418096 0.33507621 2.3300002
-0.17974287 0.33507621 2.3300002
-0.17522953 0.33493242 2.329
-0.17072001 0.33478859 2.3280001
-0.16628572 0.33478859 2.3280001
-0.16178192 0.33464479 2.3270001
-0.15734953 0.33464479 2.3270001
-0.15285143 0.33450097 2.3260002
-0.14842096 0.33450097 2.3260002
-0.14392859 0.33435717 2.325
-0.13950001 0.33435717 2.325
-0.13501334 0.33421335 2.3240001
-0.13053049 0.33406955 2.3230002
-0.12610573 0.33406955 2.3230002
-0.12162858 0.33392572 2.322
-0.11720572 0.33392572 2.322
-0.1127343 0.33378193 2.3210001
-0.10831334 0.33378193 2.3210001
-0.10384762 0.33363813 2.3200002
-0.099428579 0.33363813 2.3200002
-0.09496858 0.33349431 2.319
-0.090512387 0.33335051 2.3180001
-0.086097151 0.33335051 2.3180001
-0.081646673 0.33320668 2.3170002
-0.077233337 0.33320668 2.3170002
-0.072788574 0.33306289 2.3160002
-0.068377145 0.33306289 2.3160002
-0.063938096 0.33291906 2.3150001
-0.059528574 0.33291906 2.3150001
-0.05509524 0.33277526 2.3140001
-0.050687622 0.33277526 2.3140001
-0.046260003 0.33263144 2.3130002
-0.041836195 0.33248764 2.312
-0.037432384 0.33248764 2.312
-0.033014286 0.33234382 2.3110001
-0.028612383 0.33234382 2.3110001
-0.024200002 0.33220002 2.3100002
-0.019800002 0.33220002 2.3100002
-0.015393334 0.33205622 2.309
-0.010995239 0.33205622 2.309
-0.0065942863 0.3319124 2.3080001
-0.0021980954 0.3319124 2.3080001
0.0021971429 0.3317686 2.3070002
0.0065885717 0.33162478 2.306
0.010980953 0.33162478 2.306
0.015366668 0.33148098 2.3050001
0.019757144 0.33148098 2.3050001
0.024137145 0.33133715 2.3040001
0.028525716 0.33133715 2.3040001
0.032900002 0.33119336 2.3030002
0.037286669 0.33119336 2.3030002
0.041673336 0.33119336 2.3030002
0.046040002 0.33104953 2.302
0.050402861 0.33090574 2.3010001
0.054785717 0.33090574 2.3010001
0.059142862 0.33076194 2.3000002
0.063523814 0.33076194 2.3000002
0.067875244 0.33061811 2.299
0.072254293 0.33061811 2.299
0.076600008 0.33047432 2.2980001
0.080977149 0.33047432 2.2980001
0.08531715 0.33033049 2.2970002
0.089692384 0.33033049 2.2970002
0.09402667 0.33018669 2.296
0.098357148 0.33004287 2.2950001
0.10272858 0.33004287 2.2950001
0.10705334 0.32989907 2.2940001
0.11142287 0.32989907 2.2940001
0.11574192 0.32975525 2.2930002
0.12010953 0.32975525 2.2930002
0.12442286 0.32961145 2.2920001
0.12878858 0.32961145 2.2920001
0.13315429 0.32961145 2.2920001
0.13746001 0.32946765 2.2910001
0.14176191 0.32932383 2.2900002
0.14612383 0.32932383 2.2900002
0.15042001 0.32918003 2.289
0.15484762 0.32932383 2.2900002
-0.34690478 0.34242859 2.3500001
-0.34228289 0.34228289 2.3490002
-0.33766478 0.34213716 2.348
-0.33319241 0.34213716 2.348
-0.32858002 0.34199145 2.3470001
-0.32410955 0.34199145 2.3470001
-0.31950289 0.34184575 2.3460002
-0.31490001 0.34170002 2.345
-0.31043336 0.34170002 2.345
-0.3058362 0.34155431 2.3440001
-0.30137146 0.34155431 2.3440001
-0.29678002 0.34140858 2.3430002
-0.29231715 0.34140858 2.3430002
-0.28773144 0.34126288 2.342
-0.28327051 0.34126288 2.342
-0.27869049 0.34111717 2.3410001
-0.27423143 0.34111717 2.3410001
-0.26965716 0.34097144 2.3400002
-0.26508668 0.34082574 2.3390002
-0.26063144 0.34082574 2.3390002
-0.25606668 0.34068003 2.3380001
-0.25161335 0.34068003 2.3380001
-0.24705431 0.3405343 2.3370001
-0.24260287 0.3405343 2.3370001
-0.23804954 0.3403886 2.3360002
-0.23360002 0.3403886 2.3360002
-0.22905239 0.34024289 2.335
-0.22460477 0.34024289 2.335
-0.22006287 0.34009716 2.3340001
-0.21552478 0.33995146 2.3330002
-0.21108097 0.33995146 2.3330002
-0.20654859 0.33980572 2.332
-0.20210668 0.33980572 2.332
-0.19758001 0.33966002 2.3310001
-0.19314002 0.33966002 2.3310001
-0.18861906 0.33951432 2.3300002
-0.18418096 0.33951432 2.3300002
-0.17966573 0.33936858 2.329
-0.1751543 0.33922288 2.3280001
-0.17072001 0.33922288 2.3280001
-0.1662143 0.33907717 2.3270001
-0.16178192 0.33907717 2.3270001
-0.15728192 0.33893144 2.3260002
-0.15285143 0.33893144 2.3260002
-0.14835715 0.33878574 2.325
-0.14392859 0.33878574 2.325
-0.13944001 0.33864003 2.3240001
-0.13501334 0.33864003 2.3240001
-0.13053049 0.3384943 2.3230002
-0.12610573 0.3384943 2.3230002
-0.12162858 0.3383486 2.322
-0.11720572 0.3383486 2.322
-0.1127343 0.33820289 2.3210001
-0.10831334 0.33820289 2.3210001
-0.10384762 0.33805716 2.3200002
-0.099428579 0.33805716 2.3200002
-0.09496858 0.33791146 2.319
-0.090512387 0.33776572 2.3180001
-0.086060002 0.33762002 2.3170002
-0.081646673 0.33762002 2.3170002
-0.077200003 0.33747432 2.3160002
-0.072788574 0.33747432 2.3160002
-0.068347625 0.33732858 2.3150001
-0.063938096 0.33732858 2.3150001
-0.059502862 0.33718288 2.3140001
-0.05509524 0.33718288 2.3140001
-0.050665718 0.33703718 2.3130002
-0.046260003 0.33703718 2.3130002
-0.041836195 0.33689144 2.312
-0.037416194 0.33674574 2.3110001
-0.033014286 0.33674574 2.3110001
-0.028600002 0.33660004 2.3100002
-0.024200002 0.33660004 2.3100002
-0.01979143 0.3364543 2.309
-0.015393334 0.3364543 2.309
-0.010990477 0.3363086 2.3080001
-0.0065942863 0.3363086 2.3080001
-0.0021971429 0.33616287 2.3070002
0.0021971429 0.33616287 2.3070002
0.0065885717 0.33601716 2.306
0.010980953 0.33601716 2.306
0.015366668 0.33587146 2.3050001
0.019757144 0.33587146 2.3050001
0.024137145 0.33572572 2.3040001
0.028525716 0.33572572 2.3040001
0.032900002 0.33558002 2.3030002
0.037286669 0.33558002 2.3030002
0.041655242 0.33543432 2.302
0.046040002 0.33543432 2.302
0.050402861 0.33528858 2.3010001
0.054761909 0.33514288 2.3000002
0.059142862 0.33514288 2.3000002
0.063496195 0.33499718 2.299
0.067875244 0.33499718 2.299
0.072222859 0.33485144 2.2980001
0.076600008 0.33485144 2.2980001
0.080941908 0.33470574 2.2970002
0.08531715 0.33470574 2.2970002
0.089653336 0.33456004 2.296
0.093985721 0.3344143 2.2950001
0.098357148 0.3344143 2.2950001
0.10272858 0.3344143 2.2950001
0.10705334 0.3342686 2.2940001
0.11142287 0.3342686 2.2940001
0.11574192 0.33412287 2.2930002
0.12010953 0.33412287 2.2930002
0.12442286 0.33397716 2.2920001
0.12878858 0.33397716 2.2920001
0.1330962 0.33383146 2.2910001
0.13740002 0.33368573 2.2900002
0.14176191 0.33368573 2.2900002
0.14606 0.33354002 2.289
0.15042001 0.33354002 2.289
0.15484762 0.33368573 2.2900002
-0.34690478 0.34690478 2.3500001
-0.34213716 0.34660953 2.348
-0.33766478 0.34660953 2.348
-0.33305049 0.34646192 2.3470001
-0.32858002 0.34646192 2.3470001
-0.32397145 0.34631431 2.3460002
-0.31950289 0.34631431 2.3460002
-0.3150343 0.34631431 2.3460002
-0.31056574 0.34631431 2.3460002
-0.30596668 0.3461667 2.345
-0.30150002 0.3461667 2.345
-0.29690668 0.34601906 2.3440001
-0.29244193 0.34601906 2.3440001
-0.28785431 0.34587145 2.3430002
-0.28339145 0.34587145 2.3430002
-0.27880955 0.34572384 2.342
-0.27434859 0.34572384 2.342
-0.26977241 0.34557623 2.3410001
-0.26520002 0.34542859 2.3400002
-0.26074287 0.34542859 2.3400002
-0.2561762 0.34528098 2.3390002
-0.25172096 0.34528098 2.3390002
-0.24716002 0.34513336 2.3380001
-0.24270669 0.34513336 2.3380001
-0.23815145 0.34498572 2.3370001
-0.23370002 0.34498572 2.3370001
-0.22915049 0.34483811 2.3360002
-0.22470097 0.34483811 2.3360002
-0.22015716 0.3446905 2.335
-0.21561715 0.34454289 2.3340001
-0.21117145 0.34454289 2.3340001
-0.20663716 0.34439525 2.3330002
-0.20219335 0.34439525 2.3330002
-0.19766477 0.34424764 2.332
-0.19322287 0.34424764 2.332
-0.18870001 0.34410003 2.3310001
-0.18426001 0.34410003 2.3310001
-0.17974287 0.34395242 2.3300002
-0.17522953 0.34380478 2.329
-0.17072001 0.34365717 2.3280001
-0.16628572 0.34365717 2.3280001
-0.16178192 0.34350955 2.3270001
-0.15734953 0.34350955 2.3270001
-0.15285143 0.34336191 2.3260002
-0.14835715 0.3432143 2.325
-0.14392859 0.3432143 2.325
-0.13944001 0.34306669 2.3240001
-0.13501334 0.34306669 2.3240001
-0.13053049 0.34291908 2.3230002
-0.12605144 0.34277144 2.322
-0.12162858 0.34277144 2.322
-0.11715525 0.34262383 2.3210001
-0.1127343 0.34262383 2.3210001
-0.10826667 0.34247622 2.3200002
-0.10384762 0.34247622 2.3200002
-0.099385723 0.34232861 2.319
-0.09496858 0.34232861 2.319
-0.090512387 0.34218097 2.3180001
-0.086060002 0.34203336 2.3170002
-0.081611432 0.34188575 2.3160002
-0.077200003 0.34188575 2.3160002
-0.072757147 0.3417381 2.3150001
-0.068347625 0.3417381 2.3150001
-0.063910477 0.34159049 2.3140001
-0.059502862 0.34159049 2.3140001
-0.055071432 0.34144288 2.3130002
-0.050665718 0.34144288 2.3130002
-0.046240002 0.34129527 2.312
-0.041818097 0.34114763 2.3110001
-0.037416194 0.34114763 2.3110001
-0.033014286 0.34114763 2.3110001
-0.028600002 0.34100002 2.3100002
-0.024200002 0.34100002 2.3100002
-0.01979143 0.34085241 2.309
-0.015393334 0.34085241 2.309
-0.010990477 0.3407048 2.3080001
-0.0065942863 0.3407048 2.3080001
-0.0021971429 0.34055716 2.3070002
0.0021971429 0.34055716 2.3070002
0.0065885717 0.34040955 2.306
0.010976192 0.34026194 2.3050001
0.015366668 0.34026194 2.3050001
0.019748572 0.3401143 2.3040001
0.024137145 0.3401143 2.3040001
0.028513335 0.33996668 2.3030002
0.032900002 0.33996668 2.3030002
0.037270479 0.33981907 2.302
0.041655242 0.33981907 2.302
0.046020001 0.33967146 2.3010001
0.050380956 0.33952382 2.3000002
0.054761909 0.33952382 2.3000002
0.059117146 0.33937621 2.299
0.063496195 0.33937621 2.299
0.067845717 0.3392286 2.2980001
0.072222859 0.3392286 2.2980001
0.076600008 0.3392286 2.2980001
0.080941908 0.33908099 2.2970002
0.08531715 0.33908099 2.2970002
0.089653336 0.33893335 2.296
0.093985721 0.33878574 2.2950001
0.098357148 0.33878574 2.2950001
0.10268382 0.33863813 2.2940001
0.10705334 0.33863813 2.2940001
0.1113743 0.33849049 2.2930002
0.11574192 0.33849049 2.2930002
0.12005715 0.33834288 2.2920001
0.12442286 0.33834288 2.2920001
0.12873238 0.33819526 2.2910001
0.1330962 0.33819526 2.2910001
0.13740002 0.33804765 2.2900002
0.14170001 0.33790001 2.289
0.14606 0.33790001 2.289
0.15042001 0.33790001 2.289
0.15478002 0.33790001 2.289
-0.34690478 0.35138097 2.3500001
-0.34213716 0.35108194 2.348
-0.33752099 0.35093239 2.3470001
-0.33305049 0.35093239 2.3470001
-0.32858002 0.35093239 2.3470001
-0.32397145 0.35078287 2.3460002
-0.31950289 0.35078287 2.3460002
-0.3150343 0.35078287 2.3460002
-0.31043336 0.35063335 2.345
-0.30596668 0.35063335 2.345
-0.30137146 0.35048383 2.3440001
-0.29690668 0.35048383 2.3440001
-0.29231715 0.35033432 2.3430002
-0.28785431 0.35033432 2.3430002
-0.28327051 0.3501848 2.342
-0.27880955 0.3501848 2.342
-0.27423143 0.35003525 2.3410001
-0.26965716 0.34988573 2.3400002
-0.26520002 0.34988573 2.3400002
-0.26063144 0.34973621 2.3390002
-0.2561762 0.34973621 2.3390002
-0.25161335 0.3495867 2.3380001
-0.24716002 0.3495867 2.3380001
-0.24260287 0.34943718 2.3370001
-0.23815145 0.34943718 2.3370001
-0.23360002 0.34928763 2.3360002
-0.22915049 0.34928763 2.3360002
-0.22460477 0.34913811 2.335
-0.22006287 0.34898859 2.3340001
-0.21561715 0.34898859 2.3340001
-0.21108097 0.34883907 2.3330002
-0.20663716 0.34883907 2.3330002
-0.20210668 0.34868956 2.332
-0.19766477 0.34868956 2.332
-0.19314002 0.34854001 2.3310001
-0.18870001 0.34854001 2.3310001
-0.18418096 0.34839049 2.3300002
-0.17974287 0.34839049 2.3300002
-0.17522953 0.34824097 2.329
-0.17072001 0.34809145 2.3280001
-0.16628572 0.34809145 2.3280001
-0.16178192 0.34794194 2.3270001
-0.15734953 0.34794194 2.3270001
-0.15285143 0.34779242 2.3260002
-0.14842096 0.34779242 2.3260002
-0.14392859 0.34764287 2.325
-0.13950001 0.34764287 2.325
-0.13501334 0.34749335 2.3240001
-0.13053049 0.34734383 2.3230002
-0.12610573 0.34734383 2.3230002
-0.12168096 0.34734383 2.3230002
-0.11720572 0.34719431 2.322
-0.11278287 0.34719431 2.322
-0.10831334 0.3470448 2.3210001
-0.10389239 0.3470448 2.3210001
-0.099428579 0.34689525 2.3200002
-0.095009528 0.34689525 2.3200002
-0.090551436 0.34674573 2.319
-0.086097151 0.34659621 2.3180001
-0.081646673 0.34644669 2.3170002
-0.077233337 0.34644669 2.3170002
-0.072788574 0.34629717 2.3160002
-0.068377145 0.34629717 2.3160002
-0.063938096 0.34614766 2.3150001
-0.059528574 0.34614766 2.3150001
-0.05509524 0.34599811 2.3140001
-0.050687622 0.34599811 2.3140001
-0.046260003 0.34584859 2.3130002
-0.041836195 0.34569907 2.312
-0.037432384 0.34569907 2.312
-0.033014286 0.34554955 2.3110001
-0.028612383 0.34554955 2.3110001
-0.024200002 0.34540004 2.3100002
-0.019800002 0.34540004 2.3100002
-0.015393334 0.34525049 2.309
-0.010995239 0.34525049 2.309
-0.0065942863 0.34510097 2.3080001
-0.0021980954 0.34510097 2.3080001
0.0021971429 0.34495145 2.3070002
0.0065885717 0.34480193 2.306
0.010980953 0.34480193 2.306
0.015373334 0.34480193 2.306
0.019757144 0.34465241 2.3050001
0.02414762 0.34465241 2.3050001
0.028525716 0.34450287 2.3040001
0.032900002 0.34435335 2.3030002
0.037286669 0.34435335 2.3030002
0.041655242 0.34420383 2.302
0.046040002 0.34420383 2.302
0.050402861 0.34405431 2.3010001
0.054761909 0.34390479 2.3000002
0.059142862 0.34390479 2.3000002
0.063496195 0.34375528 2.299
0.067845717 0.34360573 2.2980001
0.072222859 0.34360573 2.2980001
0.076566674 0.34345621 2.2970002
0.080941908 0.34345621 2.2970002
0.085280009 0.34330669 2.296
0.089653336 0.34330669 2.296
0.093985721 0.34315717 2.2950001
0.098314293 0.34300765 2.2940001
0.10268382 0.34300765 2.2940001
0.10700668 0.34285811 2.2930002
0.1113743 0.34285811 2.2930002
0.11569144 0.34270859 2.2920001
0.12005715 0.34270859 2.2920001
0.12436858 0.34255907 2.2910001
0.12873238 0.34255907 2.2910001
0.1330962 0.34255907 2.2910001
0.13740002 0.34240955 2.2900002
0.14170001 0.34226003 2.289
0.14606 0.34226003 2.289
0.1503543 0.34211048 2.2880001
0.15478002 0.34226003 2.289
-0.34675717 0.35570574 2.3490002
-0.34213716 0.35555431 2.348
-0.33752099 0.35540289 2.3470001
-0.33305049 0.35540289 2.3470001
-0.32844001 0.35525146 2.3460002
-0.32397145 0.35525146 2.3460002
-0.31936669 0.35510004 2.345
-0.31490001 0.35510004 2.345
-0.31043336 0.35510004 2.345
-0.3058362 0.35494858 2.3440001
-0.30137146 0.35494858 2.3440001
-0.29678002 0.35479715 2.3430002
-0.29231715 0.35479715 2.3430002
-0.28773144 0.35464573 2.342
-0.28327051 0.35464573 2.342
-0.27869049 0.3544943 2.3410001
-0.27423143 0.3544943 2.3410001
-0.26965716 0.35434288 2.3400002
-0.26508668 0.35419145 2.3390002
-0.26063144 0.35419145 2.3390002
-0.25606668 0.35404003 2.3380001
-0.25161335 0.35404003 2.3380001
-0.24705431 0.3538886 2.3370001
-0.24260287 0.3538886 2.3370001
-0.23804954 0.35373718 2.3360002
-0.23360002 0.35373718 2.3360002
-0.22905239 0.35358575 2.335
-0.22460477 0.35358575 2.335
-0.22006287 0.35343429 2.3340001
-0.21552478 0.35328287 2.3330002
-0.21108097 0.35328287 2.3330002
-0.20654859 0.35313144 2.332
-0.20210668 0.35313144 2.332
-0.19758001 0.35298002 2.3310001
-0.19314002 0.35298002 2.3310001
-0.18861906 0.35282859 2.3300002
-0.18418096 0.35282859 2.3300002
-0.17966573 0.35267717 2.329
-0.17522953 0.35267717 2.329
-0.17072001 0.35252574 2.3280001
-0.16628572 0.35252574 2.3280001
-0.16178192 0.35237432 2.3270001
-0.15734953 0.35237432 2.3270001
-0.15285143 0.35222289 2.3260002
-0.14842096 0.35222289 2.3260002
-0.14392859 0.35207146 2.325
-0.13950001 0.35207146 2.325
-0.13501334 0.35192001 2.3240001
-0.13053049 0.35176858 2.3230002
-0.12610573 0.35176858 2.3230002
-0.12162858 0.35161716 2.322
-0.11720572 0.35161716 2.322
-0.1127343 0.35146573 2.3210001
-0.10831334 0.35146573 2.3210001
-0.10384762 0.35131431 2.3200002
-0.099428579 0.35131431 2.3200002
-0.09496858 0.35116288 2.319
-0.090512387 0.35101146 2.3180001
-0.086060002 0.35086003 2.3170002
-0.081646673 0.35086003 2.3170002
-0.077200003 0.3507086 2.3160002
-0.072788574 0.3507086 2.3160002
-0.068347625 0.35055718 2.3150001
-0.063938096 0.35055718 2.3150001
-0.059502862 0.35040572 2.3140001
-0.05509524 0.35040572 2.3140001
-0.050665718 0.3502543 2.3130002
-0.046260003 0.3502543 2.3130002
-0.041836195 0.35010287 2.312
-0.037416194 0.34995145 2.3110001
-0.033014286 0.34995145 2.3110001
-0.028600002 0.34980002 2.3100002
-0.024200002 0.34980002 2.3100002
-0.019800002 0.34980002 2.3100002
-0.015393334 0.34964859 2.309
-0.010995239 0.34964859 2.309
-0.0065942863 0.34949717 2.3080001
-0.0021980954 0.34949717 2.3080001
0.0021971429 0.34934574 2.3070002
0.0065885717 0.34919432 2.306
0.010980953 0.34919432 2.306
0.015366668 0.34904289 2.3050001
0.019757144 0.34904289 2.3050001
0.024137145 0.34889144 2.3040001
0.028525716 0.34889144 2.3040001
0.032900002 0.34874001 2.3030002
0.037286669 0.34874001 2.3030002
0.041655242 0.34858859 2.302
0.046040002 0.34858859 2.302
0.050402861 0.34843716 2.3010001
0.054761909 0.34828573 2.3000002
0.059142862 0.34828573 2.3000002
0.063496195 0.34813431 2.299
0.067875244 0.34813431 2.299
0.072222859 0.34798288 2.2980001
0.076600008 0.34798288 2.2980001
0.080977149 0.34798288 2.2980001
0.08531715 0.34783146 2.2970002
0.089692384 0.34783146 2.2970002
0.09402667 0.34768003 2.296
0.098357148 0.34752861 2.2950001
0.10272858 0.34752861 2.2950001
0.10705334 0.34737715 2.2940001
0.11142287 0.34737715 2.2940001
0.11574192 0.34722573 2.2930002
0.12010953 0.34722573 2.2930002
0.12442286 0.3470743 2.2920001
0.12873238 0.34692287 2.2910001
0.1330381 0.34677145 2.2900002
0.13734001 0.34662002 2.289
0.14170001 0.34662002 2.289
0.1459962 0.3464686 2.2880001
0.1503543 0.3464686 2.2880001
0.15478002 0.34662002 2.289
-0.34675717 0.36018002 2.3490002
-0.34199145 0.35987335 2.3470001
-0.33752099 0.35987335 2.3470001
-0.3329086 0.35972002 2.3460002
-0.32844001 0.35972002 2.3460002
-0.32383335 0.35956669 2.345
-0.31936669 0.35956669 2.345
-0.31490001 0.35956669 2.345
-0.31030098 0.35941336 2.3440001
-0.3058362 0.35941336 2.3440001
-0.30124289 0.35926002 2.3430002
-0.29678002 0.35926002 2.3430002
-0.2921924 0.35910669 2.342
-0.28773144 0.35910669 2.342
-0.28314954 0.35895336 2.3410001
-0.27869049 0.35895336 2.3410001
-0.27411431 0.35880002 2.3400002
-0.26965716 0.35880002 2.3400002
-0.26508668 0.35864669 2.3390002
-0.26063144 0.35864669 2.3390002
-0.25606668 0.35849336 2.3380001
-0.25161335 0.35849336 2.3380001
-0.24705431 0.35834002 2.3370001
-0.24260287 0.35834002 2.3370001
-0.23804954 0.35818669 2.3360002
-0.23360002 0.35818669 2.3360002
-0.22905239 0.35803336 2.335
-0.22460477 0.35803336 2.335
-0.22006287 0.35788003 2.3340001
-0.21552478 0.35772669 2.3330002
-0.21108097 0.35772669 2.3330002
-0.20654859 0.35757336 2.332
-0.20210668 0.35757336 2.332
-0.19758001 0.35742003 2.3310001
-0.19314002 0.35742003 2.3310001
-0.18861906 0.35726669 2.3300002
-0.18418096 0.35726669 2.3300002
-0.17966573 0.35711336 2.329
-0.1751543 0.35696003 2.3280001
-0.17072001 0.35696003 2.3280001
-0.1662143 0.3568067 2.3270001
-0.16178192 0.3568067 2.3270001
-0.15728192 0.35665336 2.3260002
-0.15285143 0.35665336 2.3260002
-0.14835715 0.35650003 2.325
-0.14392859 0.35650003 2.325
-0.13944001 0.3563467 2.3240001
-0.13501334 0.3563467 2.3240001
-0.13053049 0.35619336 2.3230002
-0.12605144 0.35604003 2.322
-0.12162858 0.35604003 2.322
-0.11715525 0.3558867 2.3210001
-0.1127343 0.3558867 2.3210001
-0.10826667 0.35573336 2.3200002
-0.10384762 0.35573336 2.3200002
-0.099385723 0.35558003 2.319
-0.09496858 0.35558003 2.319
-0.090512387 0.3554267 2.3180001
-0.086060002 0.35527337 2.3170002
-0.081611432 0.35512003 2.3160002
-0.077200003 0.35512003 2.3160002
-0.072757147 0.3549667 2.3150001
-0.068347625 0.3549667 2.3150001
-0.063910477 0.35481337 2.3140001
-0.059502862 0.35481337 2.3140001
-0.05509524 0.35481337 2.3140001
-0.050665718 0.35466003 2.3130002
-0.046260003 0.35466003 2.3130002
-0.041836195 0.3545067 2.312
-0.037416194 0.35435337 2.3110001
-0.033014286 0.35435337 2.3110001
-0.028600002 0.35420004 2.3100002
-0.024200002 0.35420004 2.3100002
-0.01979143 0.3540467 2.309
-0.015393334 0.3540467 2.309
-0.010990477 0.35389337 2.3080001
-0.0065942863 0.35389337 2.3080001
-0.0021971429 0.35374004 2.3070002
0.0021971429 0.35374004 2.3070002
0.0065885717 0.3535867 2.306
0.010976192 0.35343337 2.3050001
0.015366668 0.35343337 2.3050001
0.019748572 0.35328004 2.3040001
0.024137145 0.35328004 2.3040001
0.028513335 0.3531267 2.3030002
0.032900002 0.3531267 2.3030002
0.037270479 0.35297334 2.302
0.041655242 0.35297334 2.302
0.046020001 0.35282001 2.3010001
0.050402861 0.35282001 2.3010001
0.054761909 0.35266668 2.3000002
0.059142862 0.35266668 2.3000002
0.063496195 0.35251334 2.299
0.067875244 0.35251334 2.299
0.072222859 0.35236001 2.2980001
0.076600008 0.35236001 2.2980001
0.080941908 0.35220668 2.2970002
0.08531715 0.35220668 2.2970002
0.089653336 0.35205334 2.296
0.093985721 0.35190001 2.2950001
0.098357148 0.35190001 2.2950001
0.10268382 0.35174668 2.2940001
0.10705334 0.35174668 2.2940001
0.1113743 0.35159335 2.2930002
0.11574192 0.35159335 2.2930002
0.12005715 0.35144001 2.2920001
0.12442286 0.35144001 2.2920001
0.12867621 0.35113335 2.2900002
0.1330381 0.35113335 2.2900002
0.13734001 0.35098001 2.289
0.1416381 0.35082668 2.2880001
0.1459962 0.35082668 2.2880001
0.1503543 0.35082668 2.2880001
0.15471239 0.35082668 2.2880001
-0.34660953 0.36449906 2.348
-0.34184575 0.36418858 2.3460002
-0.33737716 0.36418858 2.3460002
-0.3329086 0.36418858 2.3460002
-0.32830003 0.36403337 2.345
-0.32383335 0.36403337 2.345
-0.3192305 0.36387813 2.3440001
-0.31476572 0.36387813 2.3440001
-0.31030098 0.36387813 2.3440001
-0.30570573 0.36372289 2.3430002
-0.30124289 0.36372289 2.3430002
-0.29665336 0.36356765 2.342
-0.2921924 0.36356765 2.342
-0.28760859 0.36341241 2.3410001
-0.28314954 0.36341241 2.3410001
-0.27857146 0.36325717 2.3400002
-0.27411431 0.36325717 2.3400002
-0.26954192 0.36310193 2.3390002
-0.26497334 0.36294669 2.3380001
-0.26052001 0.36294669 2.3380001
-0.25595716 0.36279145 2.3370001
-0.25150573 0.36279145 2.3370001
-0.24694858 0.36263621 2.3360002
-0.24249907 0.36263621 2.3360002
-0.23794763 0.36248097 2.335
-0.23350002 0.36248097 2.335
-0.2289543 0.36232573 2.3340001
-0.2244124 0.36217049 2.3330002
-0.21996859 0.36217049 2.3330002
-0.21543239 0.36201525 2.332
-0.21099049 0.36201525 2.332
-0.20646001 0.36186004 2.3310001
-0.20202002 0.36186004 2.3310001
-0.19749525 0.3617048 2.3300002
-0.19305715 0.3617048 2.3300002
-0.1885381 0.36154956 2.329
-0.18410192 0.36154956 2.329
-0.17958859 0.36139432 2.3280001
-0.17507906 0.36123908 2.3270001
-0.17064668 0.36123908 2.3270001
-0.16614287 0.36108384 2.3260002
-0.16171239 0.36108384 2.3260002
-0.1572143 0.3609286 2.325
-0.15278572 0.3609286 2.325
-0.14835715 0.3609286 2.325
-0.14386667 0.36077335 2.3240001
-0.13944001 0.36077335 2.3240001
-0.13495524 0.36061811 2.3230002
-0.1304743 0.36046287 2.322
-0.12605144 0.36046287 2.322
-0.1215762 0.36030763 2.3210001
-0.11715525 0.36030763 2.3210001
-0.11268573 0.36015239 2.3200002
-0.10826667 0.36015239 2.3200002
-0.10380287 0.35999715 2.319
-0.099385723 0.35999715 2.319
-0.094927624 0.35984194 2.3180001
-0.090473339 0.3596867 2.3170002
-0.086022861 0.35953146 2.3160002
-0.081611432 0.35953146 2.3160002
-0.077166669 0.35937622 2.3150001
-0.072757147 0.35937622 2.3150001
-0.068318099 0.35922098 2.3140001
-0.063910477 0.35922098 2.3140001
-0.059477147 0.35906574 2.3130002
-0.055071432 0.35906574 2.3130002
-0.050643813 0.3589105 2.312
-0.046240002 0.3589105 2.312
-0.041818097 0.35875526 2.3110001
-0.037400004 0.35860002 2.3100002
-0.033000004 0.35860002 2.3100002
-0.028587621 0.35844478 2.309
-0.024189526 0.35844478 2.309
-0.019782858 0.35828954 2.3080001
-0.015386668 0.35828954 2.3080001
-0.010990477 0.35828954 2.3080001
-0.006591429 0.3581343 2.3070002
-0.0021971429 0.3581343 2.3070002
0.0021961906 0.35797906 2.306
0.0065857149 0.35782382 2.3050001
0.010976192 0.35782382 2.3050001
0.015360001 0.35766861 2.3040001
0.019748572 0.35766861 2.3040001
0.024126668 0.35751337 2.3030002
0.028513335 0.35751337 2.3030002
0.032885715 0.35735813 2.302
0.037270479 0.35735813 2.302
0.041637145 0.35720289 2.3010001
0.046020001 0.35720289 2.3010001
0.050380956 0.35704765 2.3000002
0.054738101 0.35689241 2.299
0.059117146 0.35689241 2.299
0.063468575 0.35673717 2.2980001
0.067845717 0.35673717 2.2980001
0.072191432 0.35658193 2.2970002
0.076566674 0.35658193 2.2970002
0.080906674 0.35642669 2.296
0.085280009 0.35642669 2.296
0.089653336 0.35642669 2.296
0.093985721 0.35627145 2.2950001
0.098314293 0.35611621 2.2940001
0.10268382 0.35611621 2.2940001
0.10700668 0.35596097 2.2930002
0.1113743 0.35596097 2.2930002
0.11569144 0.35580572 2.2920001
0.12005715 0.35580572 2.2920001
0.12436858 0.35565051 2.2910001
0.12867621 0.35549527 2.2900002
0.13298 0.35534003 2.289
0.13728 0.35518479 2.2880001
0.1416381 0.35518479 2.2880001
0.14593239 0.35502955 2.2870002
0.15028858 0.35502955 2.2870002
0.15471239 0.35518479 2.2880001
-0.34660953 0.36897147 2.348
-0.34184575 0.36865717 2.3460002
-0.33737716 0.36865717 2.3460002
-0.33276668 0.36850002 2.345
-0.32830003 0.36850002 2.345
-0.32369527 0.36834288 2.3440001
-0.3192305 0.36834288 2.3440001
-0.31476572 0.36834288 2.3440001
-0.31016859 0.36818573 2.3430002
-0.30570573 0.36818573 2.3430002
-0.30111429 0.36802858 2.342
-0.29665336 0.36802858 2.342
-0.29206765 0.36787146 2.3410001
-0.28760859 0.36787146 2.3410001
-0.2830286 0.36771432 2.3400002
-0.27857146 0.36771432 2.3400002
-0.27399716 0.36755717 2.3390002
-0.26942667 0.36740002 2.3380001
-0.26497334 0.36740002 2.3380001
-0.26040858 0.36724287 2.3370001
-0.25595716 0.36724287 2.3370001
-0.25139812 0.36708573 2.3360002
-0.24694858 0.36708573 2.3360002
-0.24239525 0.36692861 2.335
-0.23794763 0.36692861 2.335
-0.23340002 0.36677146 2.3340001
-0.2289543 0.36677146 2.3340001
-0.2244124 0.36661431 2.3330002
-0.21996859 0.36661431 2.3330002
-0.21543239 0.36645716 2.332
-0.21099049 0.36645716 2.332
-0.20646001 0.36630002 2.3310001
-0.20202002 0.36630002 2.3310001
-0.19749525 0.36614287 2.3300002
-0.19305715 0.36614287 2.3300002
-0.1885381 0.36598575 2.329
-0.18410192 0.36598575 2.329
-0.17958859 0.3658286 2.3280001
-0.17507906 0.36567146 2.3270001
-0.17064668 0.36567146 2.3270001
-0.16614287 0.36551431 2.3260002
-0.16171239 0.36551431 2.3260002
-0.1572143 0.36535716 2.325
-0.15278572 0.36535716 2.325
-0.14829335 0.36520001 2.3240001
-0.14386667 0.36520001 2.3240001
-0.13938001 0.3650429 2.3230002
-0.13495524 0.3650429 2.3230002
-0.1304743 0.36488575 2.322
-0.12599716 0.3647286 2.3210001
-0.1215762 0.3647286 2.3210001
-0.11710477 0.36457145 2.3200002
-0.11268573 0.36457145 2.3200002
-0.10822 0.3644143 2.319
-0.10380287 0.3644143 2.319
-0.09934286 0.36425716 2.3180001
-0.094927624 0.36425716 2.3180001
-0.090473339 0.36410001 2.3170002
-0.086022861 0.36394289 2.3160002
-0.081576198 0.36378574 2.3150001
-0.077166669 0.36378574 2.3150001
-0.072725721 0.3636286 2.3140001
-0.068318099 0.3636286 2.3140001
-0.063882865 0.36347145 2.3130002
-0.059477147 0.36347145 2.3130002
-0.055047624 0.3633143 2.312
-0.050643813 0.3633143 2.312
-0.046240002 0.3633143 2.312
-0.041818097 0.36315715 2.3110001
-0.037400004 0.36300004 2.3100002
-0.033000004 0.36300004 2.3100002
-0.028587621 0.36284289 2.309
-0.024189526 0.36284289 2.309
-0.019782858 0.36268574 2.3080001
-0.015386668 0.36268574 2.3080001
-0.010985715 0.36252859 2.3070002
-0.006591429 0.36252859 2.3070002
-0.0021961906 0.36237144 2.306
0.0021952381 0.3622143 2.3050001
0.0065857149 0.3622143 2.3050001
0.010971429 0.36205718 2.3040001
0.015360001 0.36205718 2.3040001
0.01974 0.36190003 2.3030002
0.024126668 0.36190003 2.3030002
0.028500954 0.36174288 2.302
0.032885715 0.36174288 2.302
0.037254289 0.36158574 2.3010001
0.041637145 0.36158574 2.3010001
0.046000004 0.36142859 2.3000002
0.050359052 0.36127144 2.299
0.054738101 0.36127144 2.299
0.059117146 0.36127144 2.299
0.063468575 0.36111432 2.2980001
0.067845717 0.36111432 2.2980001
0.072191432 0.36095718 2.2970002
0.076566674 0.36095718 2.2970002
0.080906674 0.36080003 2.296
0.085280009 0.36080003 2.296
0.089614294 0.36064288 2.2950001
0.093944766 0.36048573 2.2940001
0.098314293 0.36048573 2.2940001
0.10263906 0.36032858 2.2930002
0.10700668 0.36032858 2.2930002
0.11132572 0.36017147 2.2920001
0.11569144 0.36017147 2.2920001
0.12000477 0.36001432 2.2910001
0.12436858 0.36001432 2.2910001
0.12862001 0.35970002 2.289
0.13298 0.35970002 2.289
0.13728 0.35954288 2.2880001
0.1415762 0.35938573 2.2870002
0.14593239 0.35938573 2.2870002
0.15028858 0.35938573 2.2870002
0.15464477 0.35938573 2.2870002
-0.34646192 0.37328479 2.3470001
-0.34184575 0.37312573 2.3460002
-0.33723336 0.37296668 2.345
-0.33276668 0.37296668 2.345
-0.32816002 0.37280765 2.3440001
-0.32369527 0.37280765 2.3440001
-0.3190943 0.3726486 2.3430002
-0.31476572 0.37280765 2.3440001
-0.31016859 0.3726486 2.3430002
-0.30570573 0.3726486 2.3430002
-0.30111429 0.37248954 2.342
-0.29665336 0.37248954 2.342
-0.29206765 0.37233049 2.3410001
-0.28760859 0.37233049 2.3410001
-0.2830286 0.37217146 2.3400002
-0.27857146 0.37217146 2.3400002
-0.27399716 0.37201241 2.3390002
-0.26942667 0.37185335 2.3380001
-0.26497334 0.37185335 2.3380001
-0.26040858 0.3716943 2.3370001
-0.25595716 0.3716943 2.3370001
-0.25139812 0.37153527 2.3360002
-0.24694858 0.37153527 2.3360002
-0.24239525 0.37137622 2.335
-0.23794763 0.37137622 2.335
-0.23340002 0.37121716 2.3340001
-0.2289543 0.37121716 2.3340001
-0.2244124 0.37105811 2.3330002
-0.21987431 0.37089908 2.332
-0.21543239 0.37089908 2.332
-0.21090001 0.37074003 2.3310001
-0.20646001 0.37074003 2.3310001
-0.20193334 0.37058097 2.3300002
-0.19749525 0.37058097 2.3300002
-0.1929743 0.37042192 2.329
-0.1885381 0.37042192 2.329
-0.18402287 0.37026289 2.3280001
-0.17958859 0.37026289 2.3280001
-0.17507906 0.37010384 2.3270001
-0.17057334 0.36994478 2.3260002
-0.16614287 0.36994478 2.3260002
-0.16164286 0.36978573 2.325
-0.1572143 0.36978573 2.325
-0.15272 0.3696267 2.3240001
-0.14829335 0.3696267 2.3240001
-0.14380477 0.36946765 2.3230002
-0.13938001 0.36946765 2.3230002
-0.13489716 0.36930859 2.322
-0.13041811 0.36914954 2.3210001
-0.12599716 0.36914954 2.3210001
-0.12152382 0.36899051 2.3200002
-0.11710477 0.36899051 2.3200002
-0.11263715 0.36883146 2.319
-0.10822 0.36883146 2.319
-0.1037581 0.3686724 2.3180001
-0.09934286 0.3686724 2.3180001
-0.094886675 0.36851335 2.3170002
-0.09043429 0.36835432 2.3160002
-0.086022861 0.36835432 2.3160002
-0.081576198 0.36819527 2.3150001
-0.077166669 0.36819527 2.3150001
-0.072725721 0.36803621 2.3140001
-0.068318099 0.36803621 2.3140001
-0.063882865 0.36787716 2.3130002
-0.059477147 0.36787716 2.3130002
-0.055047624 0.36771813 2.312
-0.050643813 0.36771813 2.312
-0.046220005 0.36755908 2.3110001
-0.041800003 0.36740002 2.3100002
-0.037400004 0.36740002 2.3100002
-0.032985717 0.36724097 2.309
-0.028587621 0.36724097 2.309
-0.024179049 0.36708194 2.3080001
-0.019782858 0.36708194 2.3080001
-0.015380001 0.36692289 2.3070002
-0.010985715 0.36692289 2.3070002
-0.0065885717 0.36676383 2.306
-0.0021961906 0.36676383 2.306
0.0021952381 0.36660478 2.3050001
0.0065828576 0.36644575 2.3040001
0.010971429 0.36644575 2.3040001
0.015353334 0.3662867 2.3030002
0.01974 0.3662867 2.3030002
0.024116192 0.36612764 2.302
0.028500954 0.36612764 2.302
0.032885715 0.36612764 2.302
0.037254289 0.36596859 2.3010001
0.041637145 0.36596859 2.3010001
0.046000004 0.36580956 2.3000002
0.050359052 0.3656505 2.299
0.054738101 0.3656505 2.299
0.059091434 0.36549145 2.2980001
0.063468575 0.36549145 2.2980001
0.067816198 0.36533239 2.2970002
0.072191432 0.36533239 2.2970002
0.07653334 0.36517337 2.296
0.080906674 0.36517337 2.296
0.08524286 0.36501431 2.2950001
0.089614294 0.36501431 2.2950001
0.093944766 0.36485526 2.2940001
0.098271437 0.3646962 2.2930002
0.10263906 0.3646962 2.2930002
0.10696001 0.36453718 2.2920001
0.11132572 0.36453718 2.2920001
0.11569144 0.36453718 2.2920001
0.12000477 0.36437812 2.2910001
0.12436858 0.36437812 2.2910001
0.12862001 0.36406001 2.289
0.13292192 0.36390099 2.2880001
0.13722001 0.36374193 2.2870002
0.1415762 0.36374193 2.2870002
0.14586858 0.36358288 2.286
0.15022287 0.36358288 2.286
0.15464477 0.36374193 2.2870002
-0.34646192 0.37775525 2.3470001
-0.34170002 0.37743336 2.345
-0.33723336 0.37743336 2.345
-0.33262479 0.3772724 2.3440001
-0.32816002 0.3772724 2.3440001
-0.32369527 0.3772724 2.3440001
-0.3190943 0.37711146 2.3430002
-0.31463146 0.37711146 2.3430002
-0.31016859 0.37711146 2.3430002
-0.30557525 0.3769505 2.342
-0.30111429 0.3769505 2.342
-0.2965267 0.37678954 2.3410001
-0.29206765 0.37678954 2.3410001
-0.28748572 0.37662861 2.3400002
-0.2830286 0.37662861 2.3400002
-0.2784524 0.37646765 2.3390002
-0.27399716 0.37646765 2.3390002
-0.26942667 0.37630668 2.3380001
-0.26486 0.37614575 2.3370001
-0.26040858 0.37614575 2.3370001
-0.25584763 0.37598479 2.3360002
-0.25139812 0.37598479 2.3360002
-0.24684288 0.37582383 2.335
-0.24239525 0.37582383 2.335
-0.23784573 0.37566289 2.3340001
-0.23340002 0.37566289 2.3340001
-0.22885621 0.37550193 2.3330002
-0.22431621 0.37534097 2.332
-0.21987431 0.37534097 2.332
-0.21534002 0.37518004 2.3310001
-0.21090001 0.37518004 2.3310001
-0.20637144 0.37501907 2.3300002
-0.20193334 0.37501907 2.3300002
-0.19741049 0.37485811 2.329
-0.1929743 0.37485811 2.329
-0.18845716 0.37469718 2.3280001
-0.18402287 0.37469718 2.3280001
-0.17951144 0.37453622 2.3270001
-0.17500383 0.37437525 2.3260002
-0.17057334 0.37437525 2.3260002
-0.16607144 0.37421432 2.325
-0.16164286 0.37421432 2.325
-0.15714668 0.37405336 2.3240001
-0.15272 0.37405336 2.3240001
-0.14822954 0.3738924 2.3230002
-0.14380477 0.3738924 2.3230002
-0.13932002 0.37373146 2.322
-0.13489716 0.37373146 2.322
-0.13041811 0.3735705 2.3210001
-0.12599716 0.3735705 2.3210001
-0.12152382 0.37340954 2.3200002
-0.11710477 0.37340954 2.3200002
-0.11263715 0.37324861 2.319
-0.10822 0.37324861 2.319
-0.1037581 0.37308764 2.3180001
-0.09934286 0.37308764 2.3180001
-0.094886675 0.37292668 2.3170002
-0.09043429 0.37276575 2.3160002
-0.08598572 0.37260479 2.3150001
-0.081576198 0.37260479 2.3150001
-0.077133335 0.37244383 2.3140001
-0.072725721 0.37244383 2.3140001
-0.06828858 0.37228289 2.3130002
-0.063882865 0.37228289 2.3130002
-0.059451431 0.37212193 2.312
-0.055047624 0.37212193 2.312
-0.050621908 0.37196097 2.3110001
-0.046220005 0.37196097 2.3110001
-0.041800003 0.37180004 2.3100002
-0.037383813 0.37163907 2.309
-0.032985717 0.37163907 2.309
-0.02857524 0.37147811 2.3080001
-0.024179049 0.37147811 2.3080001
-0.019774288 0.37131718 2.3070002
-0.015380001 0.37131718 2.3070002
-0.010980953 0.37115622 2.306
-0.0065885717 0.37115622 2.306
-0.0021961906 0.37115622 2.306
0.0021952381 0.37099525 2.3050001
0.0065828576 0.37083432 2.3040001
0.010971429 0.37083432 2.3040001
0.015353334 0.37067336 2.3030002
0.01974 0.37067336 2.3030002
0.024116192 0.3705124 2.302
0.028500954 0.3705124 2.302
0.032871429 0.37035146 2.3010001
0.037254289 0.37035146 2.3010001
0.041619051 0.3701905 2.3000002
0.046000004 0.3701905 2.3000002
0.050359052 0.37002954 2.299
0.054714289 0.36986861 2.2980001
0.059091434 0.36986861 2.2980001
0.063440956 0.36970764 2.2970002
0.067816198 0.36970764 2.2970002
0.072160006 0.36954668 2.296
0.07653334 0.36954668 2.296
0.080871433 0.36938575 2.2950001
0.08524286 0.36938575 2.2950001
0.089575246 0.36922479 2.2940001
0.093944766 0.36922479 2.2940001
0.098271437 0.36906382 2.2930002
0.10263906 0.36906382 2.2930002
0.10696001 0.36890289 2.2920001
0.11132572 0.36890289 2.2920001
0.11564096 0.36874193 2.2910001
0.12000477 0.36874193 2.2910001
0.12431429 0.36858097 2.2900002
0.12862001 0.36842003 2.289
0.13292192 0.36825907 2.2880001
0.13722001 0.36809811 2.2870002
0.1415762 0.36809811 2.2870002
0.14586858 0.36793718 2.286
0.15022287 0.36793718 2.286
0.15464477 0.36809811 2.2870002
-0.34631431 0.38206288 2.3460002
-0.34170002 0.38190001 2.345
-0.33723336 0.38190001 2.345
-0.33262479 0.38173717 2.3440001
-0.32816002 0.38173717 2.3440001
-0.32355717 0.3815743 2.3430002
-0.3190943 0.3815743 2.3430002
-0.31463146 0.3815743 2.3430002
-0.31003621 0.38141146 2.342
-0.30557525 0.38141146 2.342
-0.30098572 0.38124859 2.3410001
-0.2965267 0.38124859 2.3410001
-0.29194286 0.38108575 2.3400002
-0.28748572 0.38108575 2.3400002
-0.28290763 0.38092288 2.3390002
-0.2784524 0.38092288 2.3390002
-0.27388 0.38076001 2.3380001
-0.26931146 0.38059717 2.3370001
-0.26486 0.38059717 2.3370001
-0.26029715 0.3804343 2.3360002
-0.25584763 0.3804343 2.3360002
-0.2512905 0.38027146 2.335
-0.24684288 0.38027146 2.335
-0.24229145 0.38010859 2.3340001
-0.23784573 0.38010859 2.3340001
-0.23330002 0.37994573 2.3330002
-0.22885621 0.37994573 2.3330002
-0.22431621 0.37978289 2.332
-0.21978001 0.37962002 2.3310001
-0.21534002 0.37962002 2.3310001
-0.21080954 0.37945718 2.3300002
-0.20637144 0.37945718 2.3300002
-0.20184667 0.37929431 2.329
-0.19741049 0.37929431 2.329
-0.19289143 0.37913147 2.3280001
-0.18845716 0.37913147 2.3280001
-0.18402287 0.37913147 2.3280001
-0.17951144 0.3789686 2.3270001
-0.17500383 0.37880573 2.3260002
-0.17057334 0.37880573 2.3260002
-0.16607144 0.37864289 2.325
-0.16164286 0.37864289 2.325
-0.15714668 0.37848002 2.3240001
-0.15272 0.37848002 2.3240001
-0.14822954 0.37831718 2.3230002
-0.14380477 0.37831718 2.3230002
-0.13932002 0.37815431 2.322
-0.13489716 0.37815431 2.322
-0.13041811 0.37799147 2.3210001
-0.12594287 0.3778286 2.3200002
-0.12152382 0.3778286 2.3200002
-0.11705429 0.37766573 2.319
-0.11263715 0.37766573 2.319
-0.10817334 0.37750289 2.3180001
-0.1037581 0.37750289 2.3180001
-0.099300005 0.37734002 2.3170002
-0.094886675 0.37734002 2.3170002
-0.09043429 0.37717718 2.3160002
-0.08598572 0.37701431 2.3150001
-0.081540957 0.37685144 2.3140001
-0.077133335 0.37685144 2.3140001
-0.072694294 0.3766886 2.3130002
-0.06828858 0.3766886 2.3130002
-0.063855246 0.37652573 2.312
-0.059451431 0.37652573 2.312
-0.055023812 0.37636289 2.3110001
-0.050621908 0.37636289 2.3110001
-0.046200003 0.37620002 2.3100002
-0.041781906 0.37603718 2.309
-0.037383813 0.37603718 2.309
-0.032985717 0.37603718 2.309
-0.02857524 0.37587431 2.3080001
-0.024179049 0.37587431 2.3080001
-0.019774288 0.37571144 2.3070002
-0.015380001 0.37571144 2.3070002
-0.010980953 0.3755486 2.306
-0.0065885717 0.3755486 2.306
-0.0021952381 0.37538573 2.3050001
0.0021942859 0.37522289 2.3040001
0.0065828576 0.37522289 2.3040001
0.010966667 0.37506002 2.3030002
0.015353334 0.37506002 2.3030002
0.01973143 0.37489718 2.302
0.024116192 0.37489718 2.302
0.028488573 0.37473431 2.3010001
0.032871429 0.37473431 2.3010001
0.037238099 0.37457144 2.3000002
0.041619051 0.37457144 2.3000002
0.045980003 0.3744086 2.299
0.050337147 0.37424573 2.2980001
0.054714289 0.37424573 2.2980001
0.059065718 0.37408289 2.2970002
0.063440956 0.37408289 2.2970002
0.067816198 0.37408289 2.2970002
0.072160006 0.37392002 2.296
0.07653334 0.37392002 2.296
0.080871433 0.37375715 2.2950001
0.08524286 0.37375715 2.2950001
0.089575246 0.37359431 2.2940001
0.093903817 0.37343144 2.2930002
0.098271437 0.37343144 2.2930002
0.10259429 0.3732686 2.2920001
0.10696001 0.3732686 2.2920001
0.11127715 0.37310573 2.2910001
0.11564096 0.37310573 2.2910001
0.11995239 0.37294289 2.2900002
0.12431429 0.37294289 2.2900002
0.12856382 0.37261716 2.2880001
0.13292192 0.37261716 2.2880001
0.13722001 0.37245432 2.2870002
0.1415143 0.37229145 2.286
0.14586858 0.37229145 2.286
0.15015715 0.37212861 2.2850001
0.15457715 0.37229145 2.286
-0.34631431 0.38653144 2.3460002
-0.34170002 0.3863667 2.345
-0.33708954 0.38620192 2.3440001
-0.33262479 0.38620192 2.3440001
-0.32802004 0.38603717 2.3430002
-0.32355717 0.38603717 2.3430002
-0.3189581 0.38587239 2.342
-0.31449717 0.38587239 2.342
-0.31003621 0.38587239 2.342
-0.30544478 0.38570765 2.3410001
-0.30098572 0.38570765 2.3410001
-0.29640001 0.38554287 2.3400002
-0.29194286 0.38554287 2.3400002
-0.28736287 0.38537812 2.3390002
-0.28290763 0.38537812 2.3390002
-0.27833337 0.38521335 2.3380001
-0.27388 0.38521335 2.3380001
-0.26931146 0.3850486 2.3370001
-0.26486 0.3850486 2.3370001
-0.26029715 0.38488382 2.3360002
-0.25584763 0.38488382 2.3360002
-0.2512905 0.38471907 2.335
-0.24684288 0.38471907 2.335
-0.24229145 0.3845543 2.3340001
-0.23784573 0.3845543 2.3340001
-0.23330002 0.38438955 2.3330002
-0.22885621 0.38438955 2.3330002
-0.22431621 0.38422477 2.332
-0.21978001 0.38406003 2.3310001
-0.21534002 0.38406003 2.3310001
-0.21080954 0.38389528 2.3300002
-0.20637144 0.38389528 2.3300002
-0.20184667 0.3837305 2.329
-0.19741049 0.3837305 2.329
-0.19289143 0.38356575 2.3280001
-0.18845716 0.38356575 2.3280001
-0.18394382 0.38340098 2.3270001
-0.17951144 0.38340098 2.3270001
-0.17500383 0.38323623 2.3260002
-0.17050001 0.38307145 2.325
-0.16607144 0.38307145 2.325
-0.16157335 0.38290671 2.3240001
-0.15714668 0.38290671 2.3240001
-0.15265429 0.38274193 2.3230002
-0.14822954 0.38274193 2.3230002
-0.14374286 0.38257718 2.322
-0.13932002 0.38257718 2.322
-0.13483906 0.3824124 2.3210001
-0.13036191 0.38224766 2.3200002
-0.12594287 0.38224766 2.3200002
-0.12147143 0.38208288 2.319
-0.11705429 0.38208288 2.319
-0.11258858 0.38191813 2.3180001
-0.10817334 0.38191813 2.3180001
-0.10371334 0.38175336 2.3170002
-0.099300005 0.38175336 2.3170002
-0.09484572 0.38158861 2.3160002
-0.090395242 0.38142383 2.3150001
-0.085948579 0.38125908 2.3140001
-0.081540957 0.38125908 2.3140001
-0.077100009 0.38109431 2.3130002
-0.072694294 0.38109431 2.3130002
-0.06828858 0.38109431 2.3130002
-0.063855246 0.38092956 2.312
-0.059451431 0.38092956 2.312
-0.055023812 0.38076478 2.3110001
-0.050621908 0.38076478 2.3110001
-0.046200003 0.38060004 2.3100002
-0.041781906 0.38043526 2.309
-0.037383813 0.38043526 2.309
-0.032971431 0.38027051 2.3080001
-0.02857524 0.38027051 2.3080001
-0.024168573 0.38010573 2.3070002
-0.019774288 0.38010573 2.3070002
-0.015373334 0.37994099 2.306
-0.010980953 0.37994099 2.306
-0.0065857149 0.37977621 2.3050001
-0.0021952381 0.37977621 2.3050001
0.0021942859 0.37961146 2.3040001
0.0065800003 0.37944669 2.3030002
0.010966667 0.37944669 2.3030002
0.015346668 0.37928194 2.302
0.01973143 0.37928194 2.302
0.024105716 0.37911716 2.3010001
0.028488573 0.37911716 2.3010001
0.032857146 0.37895241 2.3000002
0.037238099 0.37895241 2.3000002
0.041619051 0.37895241 2.3000002
0.045980003 0.37878764 2.299
0.050337147 0.37862289 2.2980001
0.054714289 0.37862289 2.2980001
0.059065718 0.37845811 2.2970002
0.063440956 0.37845811 2.2970002
0.067786671 0.37829337 2.296
0.072160006 0.37829337 2.296
0.076500006 0.37812859 2.2950001
0.080871433 0.37812859 2.2950001
0.085205719 0.37796384 2.2940001
0.089575246 0.37796384 2.2940001
0.093903817 0.37779906 2.2930002
0.098228581 0.37763432 2.2920001
0.10259429 0.37763432 2.2920001
0.10691334 0.37746954 2.2910001
0.11127715 0.37746954 2.2910001
0.11559048 0.37730479 2.2900002
0.11995239 0.37730479 2.2900002
0.12431429 0.37730479 2.2900002
0.12856382 0.37697527 2.2880001
0.13286382 0.37681049 2.2870002
0.13716 0.37664574 2.286
0.1415143 0.37664574 2.286
0.14580478 0.37648097 2.2850001
0.15015715 0.37648097 2.2850001
0.15457715 0.37664574 2.286
-0.34631431 0.39100003 2.3460002
-0.34155431 0.39066669 2.3440001
-0.33708954 0.39066669 2.3440001
-0.33248287 0.39050004 2.3430002
-0.32802004 0.39050004 2.3430002
-0.32341906 0.39033335 2.342
-0.3189581 0.39033335 2.342
-0.31449717 0.39033335 2.342
-0.31003621 0.39033335 2.342
-0.30544478 0.3901667 2.3410001
-0.30098572 0.3901667 2.3410001
-0.29640001 0.39000002 2.3400002
-0.29194286 0.39000002 2.3400002
-0.28736287 0.38983336 2.3390002
-0.28290763 0.38983336 2.3390002
