# .PCD v0.7 - Point Cloud Data file format
VERSION 0.7
FIELDS x y z
SIZE 4 4 4
TYPE F F F
COUNT 1 1 1
WIDTH 1529
HEIGHT 1
VIEWPOINT 0 0 0 1 0 0 0
POINTS 1529
DATA ascii
0.87790483 0.78990483 2.2
0.88209528 0.78990483 2.2
0.88628578 0.78990483 2.2
0.89047623 0.78990483 2.2
0.89466673 0.78990483 2.2
0.89885718 0.78990483 2.2
0.90304768 0.78990483 2.2
0.90723813 0.78990483 2.2
0.91142863 0.78990483 2.2
0.91561913 0.78990483 2.2
0.91980958 0.78990483 2.2
0.92400008 0.78990483 2.2
0.92819053 0.78990483 2.2
0.93238103 0.78990483 2.2
0.93657148 0.78990483 2.2
0.94076198 0.78990483 2.2
0.94495243 0.78990483 2.2
0.94914293 0.78990483 2.2
0.95333338 0.78990483 2.2
0.95752388 0.78990483 2.2
0.96171433 0.78990483 2.2
0.96590483 0.78990483 2.2
0.97009528 0.78990483 2.2
0.97428578 0.78990483 2.2
0.97847623 0.78990483 2.2
0.98266673 0.78990483 2.2
0.98685724 0.78990483 2.2
0.99104768 0.78990483 2.2
0.99523818 0.78990483 2.2
0.99942863 0.78990483 2.2
1.0036191 0.78990483 2.2
1.0078096 0.78990483 2.2
1.0120001 0.78990483 2.2
1.0161905 0.78990483 2.2
1.020381 0.78990483 2.2
1.0245715 0.78990483 2.2
1.028762 0.78990483 2.2
1.0329524 0.78990483 2.2
1.0371429 0.78990483 2.2
1.0413334 0.78990483 2.2
1.0455239 0.78990483 2.2
1.0497143 0.78990483 2.2
1.0543839 0.79026389 2.2010002
1.060981 0.79205912 2.2060001
1.0675973 0.79385436 2.2110002
1.0742325 0.79564959 2.2160001
1.0808867 0.79744482 2.2210002
-1.0152792 0.79012483 2.1890001
-1.0111096 0.79012483 2.1890001
-1.00694 0.79012483 2.1890001
-1.0027705 0.79012483 2.1890001
-0.99860102 0.79012483 2.1890001
-0.9944315 0.79012483 2.1890001
-0.99026197 0.79012483 2.1890001
-0.98609245 0.79012483 2.1890001
-0.98192292 0.79012483 2.1890001
-0.9777534 0.79012483 2.1890001
-0.97358388 0.79012483 2.1890001
-0.96941435 0.79012483 2.1890001
-0.96524483 0.79012483 2.1890001
-0.96107531 0.79012483 2.1890001
-0.95690578 0.79012483 2.1890001
-0.95273626 0.79012483 2.1890001
-0.94856673 0.79012483 2.1890001
-0.94439721 0.79012483 2.1890001
-0.94022769 0.79012483 2.1890001
-0.93605816 0.79012483 2.1890001
-0.93188864 0.79012483 2.1890001
-0.92771912 0.79012483 2.1890001
-0.92354959 0.79012483 2.1890001
-0.91938007 0.79012483 2.1890001
-0.91521055 0.79012483 2.1890001
-0.91104102 0.79012483 2.1890001
-0.9068715 0.79012483 2.1890001
-0.90270197 0.79012483 2.1890001
-0.89853245 0.79012483 2.1890001
-0.89436293 0.79012483 2.1890001
-0.8901934 0.79012483 2.1890001
-0.88602388 0.79012483 2.1890001
-0.88185436 0.79012483 2.1890001
-0.87768483 0.79012483 2.1890001
-0.87351531 0.79012483 2.1890001
-0.86934578 0.79012483 2.1890001
-0.86517626 0.79012483 2.1890001
-0.86100674 0.79012483 2.1890001
-0.85683721 0.79012483 2.1890001
-0.85266769 0.79012483 2.1890001
-0.84849817 0.79012483 2.1890001
-0.84432864 0.79012483 2.1890001
-0.84015912 0.79012483 2.1890001
-0.83598959 0.79012483 2.1890001
-0.83182007 0.79012483 2.1890001
-0.82765055 0.79012483 2.1890001
-0.82348102 0.79012483 2.1890001
-0.8193115 0.79012483 2.1890001
-0.81514198 0.79012483 2.1890001
-0.81097245 0.79012483 2.1890001
-0.80680293 0.79012483 2.1890001
-0.8026334 0.79012483 2.1890001
-0.79846388 0.79012483 2.1890001
-0.79429436 0.79012483 2.1890001
-0.79012483 0.79012483 2.1890001
-0.78595531 0.79012483 2.1890001
-0.78178579 0.79012483 2.1890001
-0.77761626 0.79012483 2.1890001
-0.77344674 0.79012483 2.1890001
-0.76927722 0.79012483 2.1890001
-0.76510769 0.79012483 2.1890001
-0.76093817 0.79012483 2.1890001
-0.75676864 0.79012483 2.1890001
-0.75259912 0.79012483 2.1890001
-0.7484296 0.79012483 2.1890001
-0.74426007 0.79012483 2.1890001
-0.74009055 0.79012483 2.1890001
-0.73592103 0.79012483 2.1890001
-0.7317515 0.79012483 2.1890001
-0.72758198 0.79012483 2.1890001
-0.72341245 0.79012483 2.1890001
-0.71924293 0.79012483 2.1890001
-0.71507341 0.79012483 2.1890001
-0.71090388 0.79012483 2.1890001
-0.70673436 0.79012483 2.1890001
-0.70256484 0.79012483 2.1890001
-0.69839531 0.79012483 2.1890001
-0.69422579 0.79012483 2.1890001
-0.69005626 0.79012483 2.1890001
-0.68588674 0.79012483 2.1890001
-0.68171722 0.79012483 2.1890001
-0.67754769 0.79012483 2.1890001
-0.67337811 0.79012483 2.1890001
-0.66920859 0.79012483 2.1890001
-0.66503906 0.79012483 2.1890001
-0.66086954 0.79012483 2.1890001
-0.65670002 0.79012483 2.1890001
-0.65253049 0.79012483 2.1890001
-0.64836097 0.79012483 2.1890001
-0.64419144 0.79012483 2.1890001
-0.64002192 0.79012483 2.1890001
-0.6358524 0.79012483 2.1890001
-0.53578383 0.79012483 2.1890001
-0.5316143 0.79012483 2.1890001
-0.52744478 0.79012483 2.1890001
-0.52327526 0.79012483 2.1890001
-0.51910573 0.79012483 2.1890001
-0.51493621 0.79012483 2.1890001
-0.51076669 0.79012483 2.1890001
-0.50659716 0.79012483 2.1890001
-0.50242764 0.79012483 2.1890001
-0.49825811 0.79012483 2.1890001
-0.49408859 0.79012483 2.1890001
-0.48991907 0.79012483 2.1890001
-0.48574954 0.79012483 2.1890001
-0.48158002 0.79012483 2.1890001
-0.4774105 0.79012483 2.1890001
-0.47324097 0.79012483 2.1890001
-0.46907145 0.79012483 2.1890001
-0.46490192 0.79012483 2.1890001
-0.4607324 0.79012483 2.1890001
-0.45656288 0.79012483 2.1890001
-0.45239335 0.79012483 2.1890001
-0.44822383 0.79012483 2.1890001
-0.44405431 0.79012483 2.1890001
-0.43988478 0.79012483 2.1890001
-0.43571526 0.79012483 2.1890001
-0.43154573 0.79012483 2.1890001
-0.42737621 0.79012483 2.1890001
-0.42320669 0.79012483 2.1890001
-0.41903716 0.79012483 2.1890001
-0.41486764 0.79012483 2.1890001
-0.41069812 0.79012483 2.1890001
-0.40652859 0.79012483 2.1890001
-0.40235907 0.79012483 2.1890001
-0.39818954 0.79012483 2.1890001
-0.39402002 0.79012483 2.1890001
-0.3898505 0.79012483 2.1890001
-0.38568097 0.79012483 2.1890001
-0.38151145 0.79012483 2.1890001
-0.37734193 0.79012483 2.1890001
-0.3731724 0.79012483 2.1890001
-0.36900288 0.79012483 2.1890001
-0.36483335 0.79012483 2.1890001
-0.36066383 0.79012483 2.1890001
-0.35649431 0.79012483 2.1890001
-0.35232478 0.79012483 2.1890001
-0.34815526 0.79012483 2.1890001
-0.34398574 0.79012483 2.1890001
-0.33981621 0.79012483 2.1890001
-0.33564669 0.79012483 2.1890001
-0.33147717 0.79012483 2.1890001
-0.32730764 0.79012483 2.1890001
-0.32313812 0.79012483 2.1890001
-0.31896859 0.79012483 2.1890001
-0.31479907 0.79012483 2.1890001
-0.31062955 0.79012483 2.1890001
-0.30646002 0.79012483 2.1890001
-0.3022905 0.79012483 2.1890001
0.27310383 0.79012483 2.1890001
0.27727336 0.79012483 2.1890001
0.28144288 0.79012483 2.1890001
0.2856124 0.79012483 2.1890001
0.28978193 0.79012483 2.1890001
0.29395145 0.79012483 2.1890001
0.29812098 0.79012483 2.1890001
0.3022905 0.79012483 2.1890001
0.30646002 0.79012483 2.1890001
0.31062955 0.79012483 2.1890001
0.31479907 0.79012483 2.1890001
0.31896859 0.79012483 2.1890001
0.32313812 0.79012483 2.1890001
0.32730764 0.79012483 2.1890001
0.33147717 0.79012483 2.1890001
0.33564669 0.79012483 2.1890001
0.33981621 0.79012483 2.1890001
0.34398574 0.79012483 2.1890001
0.34815526 0.79012483 2.1890001
0.35232478 0.79012483 2.1890001
0.35649431 0.79012483 2.1890001
0.36066383 0.79012483 2.1890001
0.36483335 0.79012483 2.1890001
0.36900288 0.79012483 2.1890001
0.3731724 0.79012483 2.1890001
0.37734193 0.79012483 2.1890001
0.38151145 0.79012483 2.1890001
0.38568097 0.79012483 2.1890001
0.3898505 0.79012483 2.1890001
0.39402002 0.79012483 2.1890001
0.39818954 0.79012483 2.1890001
0.40235907 0.79012483 2.1890001
0.40652859 0.79012483 2.1890001
0.41069812 0.79012483 2.1890001
0.41486764 0.79012483 2.1890001
0.41903716 0.79012483 2.1890001
0.42320669 0.79012483 2.1890001
0.42737621 0.79012483 2.1890001
0.43154573 0.79012483 2.1890001
0.43571526 0.79012483 2.1890001
0.43988478 0.79012483 2.1890001
0.44405431 0.79012483 2.1890001
0.44822383 0.79012483 2.1890001
0.45239335 0.79012483 2.1890001
0.45656288 0.79012483 2.1890001
0.4607324 0.79012483 2.1890001
0.46490192 0.79012483 2.1890001
0.46907145 0.79012483 2.1890001
0.47324097 0.79012483 2.1890001
0.4774105 0.79012483 2.1890001
0.48158002 0.79012483 2.1890001
0.48574954 0.79012483 2.1890001
0.48991907 0.79012483 2.1890001
0.49408859 0.79012483 2.1890001
0.49825811 0.79012483 2.1890001
0.50242764 0.79012483 2.1890001
0.50659716 0.79012483 2.1890001
0.51076669 0.79012483 2.1890001
0.51493621 0.79012483 2.1890001
0.51910573 0.79012483 2.1890001
0.52327526 0.79012483 2.1890001
0.52744478 0.79012483 2.1890001
0.5316143 0.79012483 2.1890001
0.53578383 0.79012483 2.1890001
0.53995335 0.79012483 2.1890001
0.54412287 0.79012483 2.1890001
0.5482924 0.79012483 2.1890001
0.55246192 0.79012483 2.1890001
0.55663145 0.79012483 2.1890001
0.56080097 0.79012483 2.1890001
0.56497049 0.79012483 2.1890001
0.56914002 0.79012483 2.1890001
0.57330954 0.79012483 2.1890001
0.57747906 0.79012483 2.1890001
0.58164859 0.79012483 2.1890001
0.58581811 0.79012483 2.1890001
0.58998764 0.79012483 2.1890001
0.59415716 0.79012483 2.1890001
0.59832668 0.79012483 2.1890001
0.60249621 0.79012483 2.1890001
0.60666573 0.79012483 2.1890001
0.61083525 0.79012483 2.1890001
0.61500478 0.79012483 2.1890001
0.6191743 0.79012483 2.1890001
0.62334383 0.79012483 2.1890001
0.62751335 0.79012483 2.1890001
0.63168287 0.79012483 2.1890001
0.6358524 0.79012483 2.1890001
0.64002192 0.79012483 2.1890001
0.64419144 0.79012483 2.1890001
0.64836097 0.79012483 2.1890001
0.65253049 0.79012483 2.1890001
0.65670002 0.79012483 2.1890001
0.66086954 0.79012483 2.1890001
0.66503906 0.79012483 2.1890001
0.66920859 0.79012483 2.1890001
0.67337811 0.79012483 2.1890001
0.67754769 0.79012483 2.1890001
0.68171722 0.79012483 2.1890001
0.68588674 0.79012483 2.1890001
0.69005626 0.79012483 2.1890001
0.69422579 0.79012483 2.1890001
0.69839531 0.79012483 2.1890001
0.70256484 0.79012483 2.1890001
0.70673436 0.79012483 2.1890001
0.71090388 0.79012483 2.1890001
0.71507341 0.79012483 2.1890001
0.71924293 0.79012483 2.1890001
0.72341245 0.79012483 2.1890001
0.72758198 0.79012483 2.1890001
0.7317515 0.79012483 2.1890001
0.73592103 0.79012483 2.1890001
0.74009055 0.79012483 2.1890001
0.74426007 0.79012483 2.1890001
0.7484296 0.79012483 2.1890001
0.75259912 0.79012483 2.1890001
0.75676864 0.79012483 2.1890001
0.76093817 0.79012483 2.1890001
0.76510769 0.79012483 2.1890001
0.76927722 0.79012483 2.1890001
0.77344674 0.79012483 2.1890001
0.77761626 0.79012483 2.1890001
0.78178579 0.79012483 2.1890001
0.78595531 0.79012483 2.1890001
0.79012483 0.79012483 2.1890001
0.79429436 0.79012483 2.1890001
0.79846388 0.79012483 2.1890001
0.8026334 0.79012483 2.1890001
0.80680293 0.79012483 2.1890001
0.81097245 0.79012483 2.1890001
0.81514198 0.79012483 2.1890001
0.8193115 0.79012483 2.1890001
0.82348102 0.79012483 2.1890001
0.82765055 0.79012483 2.1890001
0.83182007 0.79012483 2.1890001
0.83598959 0.79012483 2.1890001
0.84015912 0.79012483 2.1890001
0.84432864 0.79012483 2.1890001
0.84849817 0.79012483 2.1890001
0.85266769 0.79012483 2.1890001
0.85683721 0.79012483 2.1890001
0.86100674 0.79012483 2.1890001
0.86517626 0.79012483 2.1890001
0.86934578 0.79012483 2.1890001
0.87351531 0.79012483 2.1890001
0.87768483 0.79012483 2.1890001
0.88185436 0.79012483 2.1890001
0.88602388 0.79012483 2.1890001
0.8901934 0.79012483 2.1890001
0.89436293 0.79012483 2.1890001
0.89853245 0.79012483 2.1890001
0.90270197 0.79012483 2.1890001
0.9068715 0.79012483 2.1890001
0.91104102 0.79012483 2.1890001
0.91521055 0.79012483 2.1890001
0.91938007 0.79012483 2.1890001
0.92354959 0.79012483 2.1890001
0.92771912 0.79012483 2.1890001
0.93188864 0.79012483 2.1890001
0.93605816 0.79012483 2.1890001
0.94022769 0.79012483 2.1890001
0.94439721 0.79012483 2.1890001
0.94856673 0.79012483 2.1890001
0.95273626 0.79012483 2.1890001
0.95690578 0.79012483 2.1890001
0.96107531 0.79012483 2.1890001
0.96524483 0.79012483 2.1890001
0.96941435 0.79012483 2.1890001
0.97358388 0.79012483 2.1890001
0.9777534 0.79012483 2.1890001
0.98192292 0.79012483 2.1890001
0.98609245 0.79012483 2.1890001
0.99026197 0.79012483 2.1890001
0.9944315 0.79012483 2.1890001
0.99860102 0.79012483 2.1890001
1.0027705 0.79012483 2.1890001
1.00694 0.79012483 2.1890001
1.0111096 0.79012483 2.1890001
1.0152792 0.79012483 2.1890001
1.0194486 0.79012483 2.1890001
1.0236182 0.79012483 2.1890001
1.0277877 0.79012483 2.1890001
1.0319573 0.79012483 2.1890001
1.0361267 0.79012483 2.1890001
1.0402963 0.79012483 2.1890001
1.0444658 0.79012483 2.1890001
1.0486354 0.79012483 2.1890001
1.0552096 0.7919296 2.194
1.0613201 0.79337341 2.1980002
1.0679306 0.79517817 2.2030001
1.07456 0.79698288 2.2080002
1.0875601 0.80348003 2.2260001
-1.018942 0.79066575 2.1790001
-1.0147915 0.79066575 2.1790001
-1.010641 0.79066575 2.1790001
-1.0064906 0.79066575 2.1790001
-1.0023401 0.79066575 2.1790001
-0.99818957 0.79066575 2.1790001
-0.99403912 0.79066575 2.1790001
-0.98988861 0.79066575 2.1790001
-0.98573816 0.79066575 2.1790001
-0.98158771 0.79066575 2.1790001
-0.9774372 0.79066575 2.1790001
-0.97328675 0.79066575 2.1790001
-0.96913624 0.79066575 2.1790001
-0.96498579 0.79066575 2.1790001
-0.96083528 0.79066575 2.1790001
-0.95668483 0.79066575 2.1790001
-0.95253438 0.79066575 2.1790001
-0.94838387 0.79066575 2.1790001
-0.94423342 0.79066575 2.1790001
-0.94008291 0.79066575 2.1790001
-0.93593246 0.79066575 2.1790001
-0.93178195 0.79066575 2.1790001
-0.9276315 0.79066575 2.1790001
-0.92348099 0.79066575 2.1790001
-0.91933054 0.79066575 2.1790001
-0.91518009 0.79066575 2.1790001
-0.91102958 0.79066575 2.1790001
-0.90687913 0.79066575 2.1790001
-0.90272862 0.79066575 2.1790001
-0.89857817 0.79066575 2.1790001
-0.89442766 0.79066575 2.1790001
-0.89027721 0.79066575 2.1790001
-0.8861267 0.79066575 2.1790001
-0.88197625 0.79066575 2.1790001
-0.8778258 0.79066575 2.1790001
-0.87367529 0.79066575 2.1790001
-0.86952484 0.79066575 2.1790001
-0.86537433 0.79066575 2.1790001
-0.86122388 0.79066575 2.1790001
-0.85707337 0.79066575 2.1790001
-0.85292292 0.79066575 2.1790001
-0.84877247 0.79066575 2.1790001
-0.84462196 0.79066575 2.1790001
-0.84047151 0.79066575 2.1790001
-0.836321 0.79066575 2.1790001
-0.83217055 0.79066575 2.1790001
-0.82802004 0.79066575 2.1790001
-0.82386959 0.79066575 2.1790001
-0.81971908 0.79066575 2.1790001
-0.81556863 0.79066575 2.1790001
-0.81141818 0.79066575 2.1790001
-0.80726767 0.79066575 2.1790001
-0.80311722 0.79066575 2.1790001
-0.79896671 0.79066575 2.1790001
-0.79481626 0.79066575 2.1790001
-0.79066575 0.79066575 2.1790001
-0.7865153 0.79066575 2.1790001
-0.78236479 0.79066575 2.1790001
-0.77821434 0.79066575 2.1790001
-0.77406389 0.79066575 2.1790001
-0.76991338 0.79066575 2.1790001
-0.76576293 0.79066575 2.1790001
-0.76161242 0.79066575 2.1790001
-0.75746197 0.79066575 2.1790001
-0.75331146 0.79066575 2.1790001
-0.74916101 0.79066575 2.1790001
-0.74501055 0.79066575 2.1790001
-0.74086004 0.79066575 2.1790001
-0.73670959 0.79066575 2.1790001
-0.73255908 0.79066575 2.1790001
-0.72840863 0.79066575 2.1790001
-0.72425812 0.79066575 2.1790001
-0.72010767 0.79066575 2.1790001
-0.71595716 0.79066575 2.1790001
-0.71180671 0.79066575 2.1790001
-0.70765626 0.79066575 2.1790001
-0.70350575 0.79066575 2.1790001
-0.6993553 0.79066575 2.1790001
-0.69520479 0.79066575 2.1790001
-0.69105434 0.79066575 2.1790001
-0.68690383 0.79066575 2.1790001
-0.68275338 0.79066575 2.1790001
-0.67860287 0.79066575 2.1790001
-0.67445242 0.79066575 2.1790001
-0.67030197 0.79066575 2.1790001
-0.66615146 0.79066575 2.1790001
-0.66200101 0.79066575 2.1790001
-0.6578505 0.79066575 2.1790001
-0.65370005 0.79066575 2.1790001
-0.64954954 0.79066575 2.1790001
-0.64539909 0.79066575 2.1790001
-0.64124858 0.79066575 2.1790001
-0.63709813 0.79066575 2.1790001
-0.63294768 0.79066575 2.1790001
-0.53748667 0.79066575 2.1790001
-0.53333622 0.79066575 2.1790001
-0.52918577 0.79066575 2.1790001
-0.52503526 0.79066575 2.1790001
-0.52088481 0.79066575 2.1790001
-0.5167343 0.79066575 2.1790001
-0.51258385 0.79066575 2.1790001
-0.50843334 0.79066575 2.1790001
-0.50428289 0.79066575 2.1790001
-0.50013244 0.79066575 2.1790001
-0.49598193 0.79066575 2.1790001
-0.49183145 0.79066575 2.1790001
-0.48768097 0.79066575 2.1790001
-0.48353052 0.79066575 2.1790001
-0.47938004 0.79066575 2.1790001
-0.47522956 0.79066575 2.1790001
-0.47107908 0.79066575 2.1790001
-0.4669286 0.79066575 2.1790001
-0.46277812 0.79066575 2.1790001
-0.45862764 0.79066575 2.1790001
-0.45447716 0.79066575 2.1790001
-0.45032671 0.79066575 2.1790001
-0.44617623 0.79066575 2.1790001
-0.44202575 0.79066575 2.1790001
-0.43787527 0.79066575 2.1790001
-0.43372479 0.79066575 2.1790001
-0.42957431 0.79066575 2.1790001
-0.42542383 0.79066575 2.1790001
-0.42127335 0.79066575 2.1790001
-0.41712287 0.79066575 2.1790001
-0.41297242 0.79066575 2.1790001
-0.40882194 0.79066575 2.1790001
-0.40467146 0.79066575 2.1790001
-0.40052098 0.79066575 2.1790001
-0.3963705 0.79066575 2.1790001
-0.39222002 0.79066575 2.1790001
-0.38806954 0.79066575 2.1790001
-0.38391906 0.79066575 2.1790001
-0.37976861 0.79066575 2.1790001
-0.37561813 0.79066575 2.1790001
-0.37146765 0.79066575 2.1790001
-0.36731717 0.79066575 2.1790001
-0.36316669 0.79066575 2.1790001
-0.35901621 0.79066575 2.1790001
-0.35486573 0.79066575 2.1790001
-0.35071525 0.79066575 2.1790001
-0.3465648 0.79066575 2.1790001
-0.34241432 0.79066575 2.1790001
-0.33826384 0.79066575 2.1790001
-0.33411336 0.79066575 2.1790001
-0.32996288 0.79066575 2.1790001
-0.3258124 0.79066575 2.1790001
-0.32166192 0.79066575 2.1790001
-0.31751144 0.79066575 2.1790001
-0.31336096 0.79066575 2.1790001
-0.30921051 0.79066575 2.1790001
-0.30506003 0.79066575 2.1790001
-0.30090955 0.79066575 2.1790001
-0.29675907 0.79066575 2.1790001
-0.29260859 0.79066575 2.1790001
-0.28845811 0.79066575 2.1790001
-0.28430763 0.79066575 2.1790001
0.27185622 0.79066575 2.1790001
0.2760067 0.79066575 2.1790001
0.28015715 0.79066575 2.1790001
0.28430763 0.79066575 2.1790001
0.28845811 0.79066575 2.1790001
0.29260859 0.79066575 2.1790001
0.29675907 0.79066575 2.1790001
0.30090955 0.79066575 2.1790001
0.30506003 0.79066575 2.1790001
0.30921051 0.79066575 2.1790001
0.31336096 0.79066575 2.1790001
0.31751144 0.79066575 2.1790001
0.32166192 0.79066575 2.1790001
0.3258124 0.79066575 2.1790001
0.32996288 0.79066575 2.1790001
0.33411336 0.79066575 2.1790001
0.33826384 0.79066575 2.1790001
0.34241432 0.79066575 2.1790001
0.3465648 0.79066575 2.1790001
0.35071525 0.79066575 2.1790001
0.35486573 0.79066575 2.1790001
0.35901621 0.79066575 2.1790001
0.36316669 0.79066575 2.1790001
0.36731717 0.79066575 2.1790001
0.37146765 0.79066575 2.1790001
0.37561813 0.79066575 2.1790001
0.37976861 0.79066575 2.1790001
0.38391906 0.79066575 2.1790001
0.38806954 0.79066575 2.1790001
0.39222002 0.79066575 2.1790001
0.3963705 0.79066575 2.1790001
0.40052098 0.79066575 2.1790001
0.40467146 0.79066575 2.1790001
0.40882194 0.79066575 2.1790001
0.41297242 0.79066575 2.1790001
0.41712287 0.79066575 2.1790001
0.42127335 0.79066575 2.1790001
0.42542383 0.79066575 2.1790001
0.42957431 0.79066575 2.1790001
0.43372479 0.79066575 2.1790001
0.43787527 0.79066575 2.1790001
0.44202575 0.79066575 2.1790001
0.44617623 0.79066575 2.1790001
0.45032671 0.79066575 2.1790001
0.48768097 0.79066575 2.1790001
0.49183145 0.79066575 2.1790001
0.49598193 0.79066575 2.1790001
0.50013244 0.79066575 2.1790001
0.50428289 0.79066575 2.1790001
0.50843334 0.79066575 2.1790001
0.51258385 0.79066575 2.1790001
0.5167343 0.79066575 2.1790001
0.52088481 0.79066575 2.1790001
0.52503526 0.79066575 2.1790001
0.52918577 0.79066575 2.1790001
0.53333622 0.79066575 2.1790001
0.53748667 0.79066575 2.1790001
0.54163718 0.79066575 2.1790001
0.54578763 0.79066575 2.1790001
0.54993814 0.79066575 2.1790001
0.55408859 0.79066575 2.1790001
0.5582391 0.79066575 2.1790001
0.56238955 0.79066575 2.1790001
0.56654006 0.79066575 2.1790001
0.57069051 0.79066575 2.1790001
0.57484096 0.79066575 2.1790001
0.57899147 0.79066575 2.1790001
0.58314192 0.79066575 2.1790001
0.58729243 0.79066575 2.1790001
0.59144288 0.79066575 2.1790001
0.59559339 0.79066575 2.1790001
0.59974384 0.79066575 2.1790001
0.60389435 0.79066575 2.1790001
0.6080448 0.79066575 2.1790001
0.61219525 0.79066575 2.1790001
0.61634576 0.79066575 2.1790001
0.62049621 0.79066575 2.1790001
0.62464672 0.79066575 2.1790001
0.62879717 0.79066575 2.1790001
0.63294768 0.79066575 2.1790001
0.63709813 0.79066575 2.1790001
0.64124858 0.79066575 2.1790001
0.64539909 0.79066575 2.1790001
0.64954954 0.79066575 2.1790001
0.65370005 0.79066575 2.1790001
0.6578505 0.79066575 2.1790001
0.66200101 0.79066575 2.1790001
0.66615146 0.79066575 2.1790001
0.67030197 0.79066575 2.1790001
0.67445242 0.79066575 2.1790001
0.67860287 0.79066575 2.1790001
0.68275338 0.79066575 2.1790001
0.68690383 0.79066575 2.1790001
0.69105434 0.79066575 2.1790001
0.69520479 0.79066575 2.1790001
0.6993553 0.79066575 2.1790001
0.70350575 0.79066575 2.1790001
0.70765626 0.79066575 2.1790001
0.71180671 0.79066575 2.1790001
0.71595716 0.79066575 2.1790001
0.72010767 0.79066575 2.1790001
0.72425812 0.79066575 2.1790001
0.72840863 0.79066575 2.1790001
0.73255908 0.79066575 2.1790001
0.73670959 0.79066575 2.1790001
0.74086004 0.79066575 2.1790001
0.74501055 0.79066575 2.1790001
0.74916101 0.79066575 2.1790001
0.75331146 0.79066575 2.1790001
0.75746197 0.79066575 2.1790001
0.76161242 0.79066575 2.1790001
0.76576293 0.79066575 2.1790001
0.76991338 0.79066575 2.1790001
0.77406389 0.79066575 2.1790001
0.77821434 0.79066575 2.1790001
0.78236479 0.79066575 2.1790001
0.7865153 0.79066575 2.1790001
0.79066575 0.79066575 2.1790001
0.79481626 0.79066575 2.1790001
0.79896671 0.79066575 2.1790001
0.80311722 0.79066575 2.1790001
0.80726767 0.79066575 2.1790001
0.81141818 0.79066575 2.1790001
0.81556863 0.79066575 2.1790001
0.81971908 0.79066575 2.1790001
0.82386959 0.79066575 2.1790001
0.82802004 0.79066575 2.1790001
0.83217055 0.79066575 2.1790001
0.836321 0.79066575 2.1790001
0.84047151 0.79066575 2.1790001
0.84462196 0.79066575 2.1790001
0.84877247 0.79066575 2.1790001
0.85292292 0.79066575 2.1790001
0.85707337 0.79066575 2.1790001
0.86122388 0.79066575 2.1790001
0.86537433 0.79066575 2.1790001
0.86952484 0.79066575 2.1790001
0.87367529 0.79066575 2.1790001
0.8778258 0.79066575 2.1790001
0.88197625 0.79066575 2.1790001
0.8861267 0.79066575 2.1790001
0.89027721 0.79066575 2.1790001
0.89442766 0.79066575 2.1790001
0.89857817 0.79066575 2.1790001
0.90272862 0.79066575 2.1790001
0.90687913 0.79066575 2.1790001
0.91102958 0.79066575 2.1790001
0.91518009 0.79066575 2.1790001
0.91933054 0.79066575 2.1790001
0.92348099 0.79066575 2.1790001
0.9276315 0.79066575 2.1790001
0.93178195 0.79066575 2.1790001
0.93593246 0.79066575 2.1790001
0.94008291 0.79066575 2.1790001
0.94423342 0.79066575 2.1790001
0.94838387 0.79066575 2.1790001
0.95253438 0.79066575 2.1790001
0.95668483 0.79066575 2.1790001
0.96083528 0.79066575 2.1790001
0.96498579 0.79066575 2.1790001
0.96913624 0.79066575 2.1790001
0.97328675 0.79066575 2.1790001
0.9774372 0.79066575 2.1790001
0.98158771 0.79066575 2.1790001
0.98573816 0.79066575 2.1790001
0.98988861 0.79066575 2.1790001
0.99403912 0.79066575 2.1790001
0.99818957 0.79066575 2.1790001
1.0023401 0.79066575 2.1790001
1.0064906 0.79066575 2.1790001
1.010641 0.79066575 2.1790001
1.0147915 0.79066575 2.1790001
1.018942 0.79066575 2.1790001
1.0230924 0.79066575 2.1790001
1.0272429 0.79066575 2.1790001
1.0313934 0.79066575 2.1790001
1.0355439 0.79066575 2.1790001
1.0396943 0.79066575 2.1790001
1.0438448 0.79066575 2.1790001
1.0489572 0.79139149 2.181
1.0555258 0.79320574 2.1860001
1.0621134 0.79502004 2.1910002
1.0687201 0.79683435 2.1960001
1.0753458 0.7986486 2.2010002
-1.0248858 0.79299241 2.174
-1.0202754 0.79262769 2.1730001
-1.015201 0.79189813 2.171
-1.0106001 0.79153341 2.1700001
-1.0060029 0.79116863 2.1690001
-1.0014095 0.79080385 2.1680002
-0.99728006 0.79080385 2.1680002
-0.99315053 0.79080385 2.1680002
-0.989021 0.79080385 2.1680002
-0.98489147 0.79080385 2.1680002
-0.98076195 0.79080385 2.1680002
-0.97663242 0.79080385 2.1680002
-0.97250295 0.79080385 2.1680002
-0.96837342 0.79080385 2.1680002
-0.96424389 0.79080385 2.1680002
-0.96011436 0.79080385 2.1680002
-0.95598483 0.79080385 2.1680002
-0.9518553 0.79080385 2.1680002
-0.94772577 0.79080385 2.1680002
-0.94359624 0.79080385 2.1680002
-0.93946671 0.79080385 2.1680002
-0.93533719 0.79080385 2.1680002
-0.93120766 0.79080385 2.1680002
-0.92707813 0.79080385 2.1680002
-0.92294866 0.79080385 2.1680002
-0.91881913 0.79080385 2.1680002
-0.9146896 0.79080385 2.1680002
-0.91056007 0.79080385 2.1680002
-0.90643054 0.79080385 2.1680002
-0.90230101 0.79080385 2.1680002
-0.89817148 0.79080385 2.1680002
-0.89404196 0.79080385 2.1680002
-0.88991243 0.79080385 2.1680002
-0.8857829 0.79080385 2.1680002
-0.88165337 0.79080385 2.1680002
-0.87752384 0.79080385 2.1680002
-0.87339437 0.79080385 2.1680002
-0.86926484 0.79080385 2.1680002
-0.86513531 0.79080385 2.1680002
-0.86100578 0.79080385 2.1680002
-0.85687625 0.79080385 2.1680002
-0.85274673 0.79080385 2.1680002
-0.8486172 0.79080385 2.1680002
-0.84448767 0.79080385 2.1680002
-0.84035814 0.79080385 2.1680002
-0.83622861 0.79080385 2.1680002
-0.83209908 0.79080385 2.1680002
-0.82796955 0.79080385 2.1680002
-0.82384008 0.79080385 2.1680002
-0.81971055 0.79080385 2.1680002
-0.81558102 0.79080385 2.1680002
-0.81145149 0.79080385 2.1680002
-0.80732197 0.79080385 2.1680002
-0.80319244 0.79080385 2.1680002
-0.79906291 0.79080385 2.1680002
-0.79493338 0.79080385 2.1680002
-0.79080385 0.79080385 2.1680002
-0.78667432 0.79080385 2.1680002
-0.78254479 0.79080385 2.1680002
-0.77841526 0.79080385 2.1680002
-0.77428579 0.79080385 2.1680002
-0.77015626 0.79080385 2.1680002
-0.76602674 0.79080385 2.1680002
-0.76189721 0.79080385 2.1680002
-0.75776768 0.79080385 2.1680002
-0.75363815 0.79080385 2.1680002
-0.74950862 0.79080385 2.1680002
-0.74537909 0.79080385 2.1680002
-0.74124956 0.79080385 2.1680002
-0.73712003 0.79080385 2.1680002
-0.7329905 0.79080385 2.1680002
-0.72886097 0.79080385 2.1680002
-0.7247315 0.79080385 2.1680002
-0.72060198 0.79080385 2.1680002
-0.71647245 0.79080385 2.1680002
-0.71234292 0.79080385 2.1680002
-0.70821339 0.79080385 2.1680002
-0.70408386 0.79080385 2.1680002
-0.69995433 0.79080385 2.1680002
-0.6958248 0.79080385 2.1680002
-0.69169527 0.79080385 2.1680002
-0.68756574 0.79080385 2.1680002
-0.68343621 0.79080385 2.1680002
-0.67930669 0.79080385 2.1680002
-0.67517722 0.79080385 2.1680002
-0.67104769 0.79080385 2.1680002
-0.66691816 0.79080385 2.1680002
-0.66278863 0.79080385 2.1680002
-0.6586591 0.79080385 2.1680002
-0.65452957 0.79080385 2.1680002
-0.65040004 0.79080385 2.1680002
-0.64627051 0.79080385 2.1680002
-0.64214098 0.79080385 2.1680002
-0.63801146 0.79080385 2.1680002
-0.63388193 0.79080385 2.1680002
-0.6297524 0.79080385 2.1680002
-0.62562287 0.79080385 2.1680002
-0.6214934 0.79080385 2.1680002
-0.53890288 0.79080385 2.1680002
-0.53477335 0.79080385 2.1680002
-0.53064382 0.79080385 2.1680002
-0.52651429 0.79080385 2.1680002
-0.52238482 0.79080385 2.1680002
-0.51825529 0.79080385 2.1680002
-0.51412576 0.79080385 2.1680002
-0.50999624 0.79080385 2.1680002
-0.50586671 0.79080385 2.1680002
-0.50173718 0.79080385 2.1680002
-0.49760765 0.79080385 2.1680002
-0.49347812 0.79080385 2.1680002
-0.48934859 0.79080385 2.1680002
-0.48521909 0.79080385 2.1680002
-0.48108956 0.79080385 2.1680002
-0.47696003 0.79080385 2.1680002
-0.4728305 0.79080385 2.1680002
-0.46870098 0.79080385 2.1680002
-0.46457145 0.79080385 2.1680002
-0.46044195 0.79080385 2.1680002
-0.45631242 0.79080385 2.1680002
-0.45218289 0.79080385 2.1680002
-0.44805336 0.79080385 2.1680002
-0.44392383 0.79080385 2.1680002
-0.4397943 0.79080385 2.1680002
-0.4356648 0.79080385 2.1680002
-0.43153527 0.79080385 2.1680002
-0.42740574 0.79080385 2.1680002
-0.42327622 0.79080385 2.1680002
-0.41914669 0.79080385 2.1680002
-0.41501716 0.79080385 2.1680002
-0.41088766 0.79080385 2.1680002
-0.40675813 0.79080385 2.1680002
-0.4026286 0.79080385 2.1680002
-0.39849907 0.79080385 2.1680002
-0.39436954 0.79080385 2.1680002
-0.39024001 0.79080385 2.1680002
-0.38611051 0.79080385 2.1680002
-0.38198099 0.79080385 2.1680002
-0.37785146 0.79080385 2.1680002
-0.37372193 0.79080385 2.1680002
-0.3695924 0.79080385 2.1680002
-0.36546287 0.79080385 2.1680002
-0.36133337 0.79080385 2.1680002
-0.35720384 0.79080385 2.1680002
-0.35307431 0.79080385 2.1680002
-0.34894478 0.79080385 2.1680002
-0.34481525 0.79080385 2.1680002
-0.34068573 0.79080385 2.1680002
-0.33655623 0.79080385 2.1680002
-0.3324267 0.79080385 2.1680002
-0.32829717 0.79080385 2.1680002
-0.32416764 0.79080385 2.1680002
-0.32003811 0.79080385 2.1680002
-0.31590858 0.79080385 2.1680002
-0.31177908 0.79080385 2.1680002
-0.30764955 0.79080385 2.1680002
-0.30352002 0.79080385 2.1680002
-0.29939049 0.79080385 2.1680002
-0.29526097 0.79080385 2.1680002
-0.29113144 0.79080385 2.1680002
-0.28700194 0.79080385 2.1680002
-0.28287241 0.79080385 2.1680002
-0.27874288 0.79080385 2.1680002
-0.27461335 0.79080385 2.1680002
-0.27048382 0.79080385 2.1680002
-0.26635429 0.79080385 2.1680002
-0.26222479 0.79080385 2.1680002
0.27048382 0.79080385 2.1680002
0.27461335 0.79080385 2.1680002
0.27874288 0.79080385 2.1680002
0.28287241 0.79080385 2.1680002
0.28700194 0.79080385 2.1680002
0.29113144 0.79080385 2.1680002
0.29526097 0.79080385 2.1680002
0.29939049 0.79080385 2.1680002
0.30352002 0.79080385 2.1680002
0.30764955 0.79080385 2.1680002
0.31177908 0.79080385 2.1680002
0.31590858 0.79080385 2.1680002
0.32003811 0.79080385 2.1680002
0.32416764 0.79080385 2.1680002
0.32829717 0.79080385 2.1680002
0.3324267 0.79080385 2.1680002
0.33655623 0.79080385 2.1680002
0.34068573 0.79080385 2.1680002
0.34481525 0.79080385 2.1680002
0.34894478 0.79080385 2.1680002
0.35307431 0.79080385 2.1680002
0.35720384 0.79080385 2.1680002
0.36133337 0.79080385 2.1680002
0.36546287 0.79080385 2.1680002
0.3695924 0.79080385 2.1680002
0.37372193 0.79080385 2.1680002
0.37785146 0.79080385 2.1680002
0.38198099 0.79080385 2.1680002
0.38611051 0.79080385 2.1680002
0.39024001 0.79080385 2.1680002
0.39436954 0.79080385 2.1680002
0.39849907 0.79080385 2.1680002
0.4026286 0.79080385 2.1680002
0.40675813 0.79080385 2.1680002
0.41088766 0.79080385 2.1680002
0.41501716 0.79080385 2.1680002
0.41914669 0.79080385 2.1680002
0.42327622 0.79080385 2.1680002
0.51825529 0.79080385 2.1680002
0.52238482 0.79080385 2.1680002
0.52651429 0.79080385 2.1680002
0.53064382 0.79080385 2.1680002
0.53477335 0.79080385 2.1680002
0.53890288 0.79080385 2.1680002
0.54303241 0.79080385 2.1680002
0.54716194 0.79080385 2.1680002
0.55129147 0.79080385 2.1680002
0.55542099 0.79080385 2.1680002
0.55955052 0.79080385 2.1680002
0.56368005 0.79080385 2.1680002
0.56780958 0.79080385 2.1680002
0.57193911 0.79080385 2.1680002
0.57606858 0.79080385 2.1680002
0.58019811 0.79080385 2.1680002
0.58432764 0.79080385 2.1680002
0.58845717 0.79080385 2.1680002
0.5925867 0.79080385 2.1680002
0.59671623 0.79080385 2.1680002
0.60084575 0.79080385 2.1680002
0.60497528 0.79080385 2.1680002
0.60910481 0.79080385 2.1680002
0.61323434 0.79080385 2.1680002
0.61736387 0.79080385 2.1680002
0.6214934 0.79080385 2.1680002
0.62562287 0.79080385 2.1680002
0.6297524 0.79080385 2.1680002
0.63388193 0.79080385 2.1680002
0.63801146 0.79080385 2.1680002
0.64214098 0.79080385 2.1680002
0.64627051 0.79080385 2.1680002
0.65040004 0.79080385 2.1680002
0.65452957 0.79080385 2.1680002
0.6586591 0.79080385 2.1680002
0.66278863 0.79080385 2.1680002
0.66691816 0.79080385 2.1680002
0.67104769 0.79080385 2.1680002
0.67517722 0.79080385 2.1680002
0.67930669 0.79080385 2.1680002
0.68343621 0.79080385 2.1680002
0.68756574 0.79080385 2.1680002
0.69169527 0.79080385 2.1680002
0.6958248 0.79080385 2.1680002
0.69995433 0.79080385 2.1680002
0.70408386 0.79080385 2.1680002
0.70821339 0.79080385 2.1680002
0.71234292 0.79080385 2.1680002
0.71647245 0.79080385 2.1680002
0.72060198 0.79080385 2.1680002
0.7247315 0.79080385 2.1680002
0.72886097 0.79080385 2.1680002
0.7329905 0.79080385 2.1680002
0.73712003 0.79080385 2.1680002
0.74124956 0.79080385 2.1680002
0.74537909 0.79080385 2.1680002
0.74950862 0.79080385 2.1680002
0.75363815 0.79080385 2.1680002
0.75776768 0.79080385 2.1680002
0.76189721 0.79080385 2.1680002
0.76602674 0.79080385 2.1680002
0.77015626 0.79080385 2.1680002
0.77428579 0.79080385 2.1680002
0.77841526 0.79080385 2.1680002
0.78254479 0.79080385 2.1680002
0.78667432 0.79080385 2.1680002
0.79080385 0.79080385 2.1680002
0.79493338 0.79080385 2.1680002
0.79906291 0.79080385 2.1680002
0.80319244 0.79080385 2.1680002
0.80732197 0.79080385 2.1680002
0.81145149 0.79080385 2.1680002
0.81558102 0.79080385 2.1680002
0.81971055 0.79080385 2.1680002
0.82384008 0.79080385 2.1680002
0.82796955 0.79080385 2.1680002
0.83209908 0.79080385 2.1680002
0.83622861 0.79080385 2.1680002
0.84035814 0.79080385 2.1680002
0.84448767 0.79080385 2.1680002
0.8486172 0.79080385 2.1680002
0.85274673 0.79080385 2.1680002
0.85687625 0.79080385 2.1680002
0.86100578 0.79080385 2.1680002
0.86513531 0.79080385 2.1680002
0.86926484 0.79080385 2.1680002
0.87339437 0.79080385 2.1680002
0.87752384 0.79080385 2.1680002
0.88165337 0.79080385 2.1680002
0.8857829 0.79080385 2.1680002
0.88991243 0.79080385 2.1680002
0.89404196 0.79080385 2.1680002
0.89817148 0.79080385 2.1680002
0.90230101 0.79080385 2.1680002
0.90643054 0.79080385 2.1680002
0.91056007 0.79080385 2.1680002
0.9146896 0.79080385 2.1680002
0.91881913 0.79080385 2.1680002
0.92294866 0.79080385 2.1680002
0.92707813 0.79080385 2.1680002
0.93120766 0.79080385 2.1680002
0.93533719 0.79080385 2.1680002
0.93946671 0.79080385 2.1680002
0.94359624 0.79080385 2.1680002
0.94772577 0.79080385 2.1680002
0.9518553 0.79080385 2.1680002
0.95598483 0.79080385 2.1680002
0.96011436 0.79080385 2.1680002
0.96424389 0.79080385 2.1680002
0.96837342 0.79080385 2.1680002
0.97250295 0.79080385 2.1680002
0.97663242 0.79080385 2.1680002
0.98076195 0.79080385 2.1680002
0.98489147 0.79080385 2.1680002
0.989021 0.79080385 2.1680002
0.99315053 0.79080385 2.1680002
0.99728006 0.79080385 2.1680002
1.0014095 0.79080385 2.1680002
1.0055391 0.79080385 2.1680002
1.0096686 0.79080385 2.1680002
1.0137981 0.79080385 2.1680002
1.0179276 0.79080385 2.1680002
1.0220572 0.79080385 2.1680002
1.0261867 0.79080385 2.1680002
1.0303162 0.79080385 2.1680002
1.0344458 0.79080385 2.1680002
1.0385753 0.79080385 2.1680002
1.0431858 0.79116863 2.1690001
1.0497315 0.79299241 2.174
1.0562962 0.79481626 2.1790001
1.0623934 0.79627532 2.1830001
1.0689944 0.7980991 2.1880002
-1.0400125 0.79603338 2.171
-1.0354 0.79566669 2.1700001
-1.0307915 0.79530007 2.1690001
-1.0261867 0.79493338 2.1680002
-1.0215858 0.79456669 2.1670001
-1.0169886 0.79420006 2.1660001
-1.0119277 0.79346675 2.164
-1.0073401 0.79310006 2.1630001
-1.0027562 0.79273337 2.1620002
-0.99817628 0.79236674 2.161
-0.99360007 0.79200006 2.1600001
-0.98902768 0.79163337 2.1590002
-0.9844591 0.79126674 2.158
-0.97989434 0.79090005 2.1570001
-0.97533339 0.79053336 2.1560001
-0.97077626 0.79016674 2.1550002
-0.96622294 0.78980005 2.154
-0.9612267 0.78906673 2.1520002
-0.95668292 0.78870004 2.151
-0.95214289 0.78833336 2.1500001
-0.94760674 0.78796673 2.1490002
-0.94307435 0.78760004 2.148
-0.9389829 0.78760004 2.148
-0.93489146 0.78760004 2.148
-0.93080008 0.78760004 2.148
-0.92670864 0.78760004 2.148
-0.9226172 0.78760004 2.148
-0.91852576 0.78760004 2.148
-0.91443437 0.78760004 2.148
-0.91034293 0.78760004 2.148
-0.90625149 0.78760004 2.148
-0.90216005 0.78760004 2.148
-0.89806861 0.78760004 2.148
-0.89397722 0.78760004 2.148
-0.88988578 0.78760004 2.148
-0.88579434 0.78760004 2.148
-0.8817029 0.78760004 2.148
-0.87761146 0.78760004 2.148
-0.87352008 0.78760004 2.148
-0.86942863 0.78760004 2.148
-0.86533719 0.78760004 2.148
-0.86124575 0.78760004 2.148
-0.85715437 0.78760004 2.148
-0.85306293 0.78760004 2.148
-0.84897149 0.78760004 2.148
-0.84488004 0.78760004 2.148
-0.8407886 0.78760004 2.148
-0.83669722 0.78760004 2.148
-0.83260578 0.78760004 2.148
-0.82851434 0.78760004 2.148
-0.8244229 0.78760004 2.148
-0.82033145 0.78760004 2.148
-0.81624007 0.78760004 2.148
-0.81214863 0.78760004 2.148
-0.80805719 0.78760004 2.148
-0.80396575 0.78760004 2.148
-0.79987437 0.78760004 2.148
-0.79578292 0.78760004 2.148
-0.79169148 0.78760004 2.148
-0.78760004 0.78760004 2.148
-0.7835086 0.78760004 2.148
-0.77941722 0.78760004 2.148
-0.77532578 0.78760004 2.148
-0.77123433 0.78760004 2.148
-0.76714289 0.78760004 2.148
-0.76305145 0.78760004 2.148
-0.75896007 0.78760004 2.148
-0.75486863 0.78760004 2.148
-0.75077718 0.78760004 2.148
-0.74668574 0.78760004 2.148
-0.74259436 0.78760004 2.148
-0.73850292 0.78760004 2.148
-0.73441148 0.78760004 2.148
-0.73032004 0.78760004 2.148
-0.72622859 0.78760004 2.148
-0.72213721 0.78760004 2.148
-0.71804577 0.78760004 2.148
-0.71395433 0.78760004 2.148
-0.70986289 0.78760004 2.148
-0.70577145 0.78760004 2.148
-0.70168006 0.78760004 2.148
-0.69758862 0.78760004 2.148
-0.69349718 0.78760004 2.148
-0.68940574 0.78760004 2.148
-0.68531436 0.78760004 2.148
-0.68122292 0.78760004 2.148
-0.67713147 0.78760004 2.148
-0.67304003 0.78760004 2.148
-0.66894859 0.78760004 2.148
-0.66485721 0.78760004 2.148
-0.66076577 0.78760004 2.148
-0.65667433 0.78760004 2.148
-0.65258288 0.78760004 2.148
-0.64849144 0.78760004 2.148
-0.64440006 0.78760004 2.148
-0.64030862 0.78760004 2.148
-0.63621718 0.78760004 2.148
-0.63212574 0.78760004 2.148
-0.62803435 0.78760004 2.148
-0.62394291 0.78760004 2.148
-0.61985147 0.78760004 2.148
-0.61576003 0.78760004 2.148
-0.61166859 0.78760004 2.148
-0.6075772 0.78760004 2.148
-0.54211432 0.78760004 2.148
-0.53802288 0.78760004 2.148
-0.53393143 0.78760004 2.148
-0.52984005 0.78760004 2.148
-0.52574861 0.78760004 2.148
-0.52165717 0.78760004 2.148
-0.51756573 0.78760004 2.148
-0.51347435 0.78760004 2.148
-0.5093829 0.78760004 2.148
-0.50529146 0.78760004 2.148
-0.50120002 0.78760004 2.148
-0.49710861 0.78760004 2.148
-0.49301717 0.78760004 2.148
-0.48892576 0.78760004 2.148
-0.48483431 0.78760004 2.148
-0.4807429 0.78760004 2.148
-0.47665146 0.78760004 2.148
-0.47256002 0.78760004 2.148
-0.46846861 0.78760004 2.148
-0.46437716 0.78760004 2.148
-0.46028575 0.78760004 2.148
-0.45619431 0.78760004 2.148
-0.4521029 0.78760004 2.148
-0.44801146 0.78760004 2.148
-0.44392002 0.78760004 2.148
-0.4398286 0.78760004 2.148
-0.43573716 0.78760004 2.148
-0.43164575 0.78760004 2.148
-0.42755431 0.78760004 2.148
-0.4234629 0.78760004 2.148
-0.41937146 0.78760004 2.148
-0.41528001 0.78760004 2.148
-0.4111886 0.78760004 2.148
-0.40709716 0.78760004 2.148
-0.40300575 0.78760004 2.148
-0.39891431 0.78760004 2.148
-0.3948229 0.78760004 2.148
-0.39073145 0.78760004 2.148
-0.38664001 0.78760004 2.148
-0.3825486 0.78760004 2.148
-0.37845716 0.78760004 2.148
-0.37436575 0.78760004 2.148
-0.37027431 0.78760004 2.148
-0.36618289 0.78760004 2.148
-0.36209145 0.78760004 2.148
-0.35800001 0.78760004 2.148
-0.3539086 0.78760004 2.148
-0.34981716 0.78760004 2.148
-0.34572574 0.78760004 2.148
-0.3416343 0.78760004 2.148
-0.33754289 0.78760004 2.148
-0.33345145 0.78760004 2.148
-0.32936001 0.78760004 2.148
-0.3252686 0.78760004 2.148
-0.32117715 0.78760004 2.148
-0.31708574 0.78760004 2.148
-0.3129943 0.78760004 2.148
-0.30890289 0.78760004 2.148
-0.30481145 0.78760004 2.148
-0.30072001 0.78760004 2.148
-0.29662859 0.78760004 2.148
-0.29253715 0.78760004 2.148
-0.28844574 0.78760004 2.148
-0.2843543 0.78760004 2.148
-0.28026289 0.78760004 2.148
-0.27617145 0.78760004 2.148
-0.27208 0.78760004 2.148
-0.26798859 0.78760004 2.148
-0.26389715 0.78760004 2.148
-0.25980574 0.78760004 2.148
-0.2557143 0.78760004 2.148
-0.25162289 0.78760004 2.148
-0.24753144 0.78760004 2.148
-0.24344002 0.78760004 2.148
0.26389715 0.78760004 2.148
0.26798859 0.78760004 2.148
0.27208 0.78760004 2.148
0.27617145 0.78760004 2.148
0.28026289 0.78760004 2.148
0.2843543 0.78760004 2.148
0.28844574 0.78760004 2.148
0.29253715 0.78760004 2.148
0.29662859 0.78760004 2.148
0.30072001 0.78760004 2.148
0.30481145 0.78760004 2.148
0.30890289 0.78760004 2.148
0.3129943 0.78760004 2.148
0.31708574 0.78760004 2.148
0.32117715 0.78760004 2.148
0.3252686 0.78760004 2.148
0.32936001 0.78760004 2.148
0.33345145 0.78760004 2.148
0.33754289 0.78760004 2.148
0.3416343 0.78760004 2.148
0.34572574 0.78760004 2.148
0.34981716 0.78760004 2.148
0.3539086 0.78760004 2.148
0.35800001 0.78760004 2.148
0.36209145 0.78760004 2.148
0.36618289 0.78760004 2.148
0.37027431 0.78760004 2.148
0.37436575 0.78760004 2.148
0.37845716 0.78760004 2.148
0.3825486 0.78760004 2.148
0.38664001 0.78760004 2.148
0.39073145 0.78760004 2.148
0.3948229 0.78760004 2.148
0.39891431 0.78760004 2.148
0.40300575 0.78760004 2.148
0.40709716 0.78760004 2.148
0.54052764 0.79126674 2.158
0.54211432 0.78760004 2.148
0.54620576 0.78760004 2.148
0.5502972 0.78760004 2.148
0.55438858 0.78760004 2.148
0.55848002 0.78760004 2.148
0.56257147 0.78760004 2.148
0.56666291 0.78760004 2.148
0.57075435 0.78760004 2.148
0.57484573 0.78760004 2.148
0.57893717 0.78760004 2.148
0.58302861 0.78760004 2.148
0.58712006 0.78760004 2.148
0.59121144 0.78760004 2.148
0.59530288 0.78760004 2.148
0.59939432 0.78760004 2.148
0.60348576 0.78760004 2.148
0.6075772 0.78760004 2.148
0.61166859 0.78760004 2.148
0.61576003 0.78760004 2.148
0.61985147 0.78760004 2.148
0.62394291 0.78760004 2.148
0.62803435 0.78760004 2.148
0.63212574 0.78760004 2.148
0.63621718 0.78760004 2.148
0.64030862 0.78760004 2.148
0.64440006 0.78760004 2.148
0.64849144 0.78760004 2.148
0.65258288 0.78760004 2.148
0.65667433 0.78760004 2.148
0.66076577 0.78760004 2.148
0.66485721 0.78760004 2.148
0.66894859 0.78760004 2.148
0.67304003 0.78760004 2.148
0.67713147 0.78760004 2.148
0.68122292 0.78760004 2.148
0.68531436 0.78760004 2.148
0.68940574 0.78760004 2.148
0.69349718 0.78760004 2.148
0.69758862 0.78760004 2.148
0.70168006 0.78760004 2.148
0.70577145 0.78760004 2.148
0.70986289 0.78760004 2.148
0.71395433 0.78760004 2.148
0.71804577 0.78760004 2.148
0.72213721 0.78760004 2.148
0.72622859 0.78760004 2.148
0.73032004 0.78760004 2.148
0.73441148 0.78760004 2.148
0.73850292 0.78760004 2.148
0.74259436 0.78760004 2.148
0.74668574 0.78760004 2.148
0.75077718 0.78760004 2.148
0.75486863 0.78760004 2.148
0.75896007 0.78760004 2.148
0.76305145 0.78760004 2.148
0.76714289 0.78760004 2.148
0.77123433 0.78760004 2.148
0.77532578 0.78760004 2.148
0.77941722 0.78760004 2.148
0.7835086 0.78760004 2.148
0.78760004 0.78760004 2.148
0.79169148 0.78760004 2.148
0.79578292 0.78760004 2.148
0.79987437 0.78760004 2.148
0.80396575 0.78760004 2.148
0.80805719 0.78760004 2.148
0.81214863 0.78760004 2.148
0.81624007 0.78760004 2.148
0.82033145 0.78760004 2.148
0.8244229 0.78760004 2.148
0.82851434 0.78760004 2.148
0.83260578 0.78760004 2.148
0.83669722 0.78760004 2.148
0.8407886 0.78760004 2.148
0.84488004 0.78760004 2.148
0.84897149 0.78760004 2.148
0.85306293 0.78760004 2.148
0.85715437 0.78760004 2.148
0.86124575 0.78760004 2.148
0.86533719 0.78760004 2.148
0.86942863 0.78760004 2.148
0.87352008 0.78760004 2.148
0.87761146 0.78760004 2.148
0.8817029 0.78760004 2.148
0.88579434 0.78760004 2.148
0.88988578 0.78760004 2.148
0.89397722 0.78760004 2.148
0.89806861 0.78760004 2.148
0.90216005 0.78760004 2.148
0.90625149 0.78760004 2.148
0.91034293 0.78760004 2.148
0.91443437 0.78760004 2.148
0.91852576 0.78760004 2.148
0.9226172 0.78760004 2.148
0.92670864 0.78760004 2.148
0.93080008 0.78760004 2.148
0.93489146 0.78760004 2.148
0.9389829 0.78760004 2.148
0.94307435 0.78760004 2.148
0.94716579 0.78760004 2.148
0.95125723 0.78760004 2.148
0.95534861 0.78760004 2.148
0.95944005 0.78760004 2.148
0.96353149 0.78760004 2.148
0.96762294 0.78760004 2.148
0.97171438 0.78760004 2.148
0.97580576 0.78760004 2.148
0.9798972 0.78760004 2.148
0.98398864 0.78760004 2.148
0.98808008 0.78760004 2.148
0.99217147 0.78760004 2.148
0.99626291 0.78760004 2.148
1.0003544 0.78760004 2.148
1.0044458 0.78760004 2.148
1.0085372 0.78760004 2.148
1.0126287 0.78760004 2.148
1.0167201 0.78760004 2.148
1.0208114 0.78760004 2.148
1.0249029 0.78760004 2.148
1.0289943 0.78760004 2.148
1.0330858 0.78760004 2.148
1.0381429 0.78833336 2.1500001
1.044662 0.79016674 2.1550002
1.0507134 0.79163337 2.1590002
1.0597115 0.79530007 2.1690001
-1.0395334 0.79980004 2.1700001
-1.0344458 0.79906291 2.1680002
-1.0298411 0.79869431 2.1670001
-1.0247667 0.79795718 2.1650002
-1.0201715 0.79758865 2.164
-1.014641 0.79648292 2.161
-1.0100572 0.79611433 2.1600001
-1.0054772 0.79574579 2.1590002
-1.000901 0.79537719 2.158
-0.99632865 0.7950086 2.1570001
-0.99176008 0.79464006 2.1560001
-0.98719531 0.79427147 2.1550002
-0.98263437 0.79390293 2.154
-0.97807723 0.79353434 2.1530001
-0.97352386 0.79316574 2.1520002
-0.96897435 0.79279721 2.151
-0.96442866 0.79242861 2.1500001
-0.95944005 0.79169148 2.148
-0.9549039 0.79132289 2.1470001
-0.9503715 0.79095435 2.1460001
-0.94584292 0.79058576 2.1450002
-0.94131815 0.79021722 2.1440001
-0.9367972 0.78984863 2.1430001
-0.93228006 0.78948003 2.1420002
-0.92776674 0.7891115 2.141
-0.92325723 0.7887429 2.1400001
-0.91875148 0.78837436 2.1390002
-0.9142496 0.78800577 2.138
-0.90975147 0.78763717 2.1370001
-0.90568101 0.78763717 2.1370001
-0.90161055 0.78763717 2.1370001
-0.89754003 0.78763717 2.1370001
-0.89346957 0.78763717 2.1370001
-0.88939911 0.78763717 2.1370001
-0.88532865 0.78763717 2.1370001
-0.88125813 0.78763717 2.1370001
-0.87718767 0.78763717 2.1370001
-0.87311721 0.78763717 2.1370001
-0.86904675 0.78763717 2.1370001
-0.86497623 0.78763717 2.1370001
-0.86090577 0.78763717 2.1370001
-0.85683531 0.78763717 2.1370001
-0.85276484 0.78763717 2.1370001
-0.84869432 0.78763717 2.1370001
-0.84462386 0.78763717 2.1370001
-0.8405534 0.78763717 2.1370001
-0.83648288 0.78763717 2.1370001
-0.83241242 0.78763717 2.1370001
-0.82834196 0.78763717 2.1370001
-0.8242715 0.78763717 2.1370001
-0.82020098 0.78763717 2.1370001
-0.81613052 0.78763717 2.1370001
-0.81206006 0.78763717 2.1370001
-0.8079896 0.78763717 2.1370001
-0.80391908 0.78763717 2.1370001
-0.79984862 0.78763717 2.1370001
-0.79577816 0.78763717 2.1370001
-0.79170769 0.78763717 2.1370001
-0.78763717 0.78763717 2.1370001
-0.78356671 0.78763717 2.1370001
-0.77949625 0.78763717 2.1370001
-0.77542579 0.78763717 2.1370001
-0.77135527 0.78763717 2.1370001
-0.76728481 0.78763717 2.1370001
-0.76321435 0.78763717 2.1370001
-0.75914389 0.78763717 2.1370001
-0.75507337 0.78763717 2.1370001
-0.75100291 0.78763717 2.1370001
-0.74693245 0.78763717 2.1370001
-0.74286193 0.78763717 2.1370001
-0.73879147 0.78763717 2.1370001
-0.734721 0.78763717 2.1370001
-0.73065054 0.78763717 2.1370001
-0.72658002 0.78763717 2.1370001
-0.72250956 0.78763717 2.1370001
-0.7184391 0.78763717 2.1370001
-0.71436864 0.78763717 2.1370001
-0.71029812 0.78763717 2.1370001
-0.70622766 0.78763717 2.1370001
-0.7021572 0.78763717 2.1370001
-0.69808674 0.78763717 2.1370001
-0.69401622 0.78763717 2.1370001
-0.68994576 0.78763717 2.1370001
-0.6858753 0.78763717 2.1370001
-0.68180484 0.78763717 2.1370001
-0.67773432 0.78763717 2.1370001
-0.67366385 0.78763717 2.1370001
-0.66959339 0.78763717 2.1370001
-0.66552287 0.78763717 2.1370001
-0.66145241 0.78763717 2.1370001
-0.65738195 0.78763717 2.1370001
-0.65331149 0.78763717 2.1370001
-0.64924097 0.78763717 2.1370001
-0.64517051 0.78763717 2.1370001
-0.64110005 0.78763717 2.1370001
-0.63702959 0.78763717 2.1370001
-0.63295907 0.78763717 2.1370001
-0.62888861 0.78763717 2.1370001
-0.62481815 0.78763717 2.1370001
-0.62074769 0.78763717 2.1370001
-0.61667717 0.78763717 2.1370001
-0.6126067 0.78763717 2.1370001
-0.60853624 0.78763717 2.1370001
-0.60446578 0.78763717 2.1370001
-0.60039526 0.78763717 2.1370001
-0.5963248 0.78763717 2.1370001
-0.59225434 0.78763717 2.1370001
-0.58818382 0.78763717 2.1370001
-0.58411336 0.78763717 2.1370001
-0.5800429 0.78763717 2.1370001
-0.57597244 0.78763717 2.1370001
-0.57190192 0.78763717 2.1370001
-0.56783146 0.78763717 2.1370001
-0.563761 0.78763717 2.1370001
-0.55969054 0.78763717 2.1370001
-0.55562001 0.78763717 2.1370001
-0.55154955 0.78763717 2.1370001
-0.54747909 0.78763717 2.1370001
-0.54340863 0.78763717 2.1370001
-0.53933811 0.78763717 2.1370001
-0.53526765 0.78763717 2.1370001
-0.53119719 0.78763717 2.1370001
-0.52712673 0.78763717 2.1370001
-0.52305621 0.78763717 2.1370001
-0.51898575 0.78763717 2.1370001
